ply
format ascii 1.0
element vertex 787
property float x
property float y
property float z
end_header
-0.027450978755950928 0.34117645025253296 0.042877197265625
-0.011764705181121826 0.34117645025253296 0.03453636169433594
0.003921627998352051 0.34117645025253296 0.023958206176757812
0.019607901573181152 0.34117645025253296 0.007527828216552734
0.11372554302215576 0.34117645025253296 -0.6240601539611816
0.12941181659698486 0.34117645025253296 -0.6146574020385742
0.3647059202194214 0.34117645025253296 -0.6745882034301758
0.3803921937942505 0.34117645025253296 -0.6633434295654297
0.5686274766921997 0.34117645025253296 0.06799983978271484
0.7411764860153198 0.34117645025253296 -0.1515650749206543
-0.498039186000824 0.32549017667770386 0.14914751052856445
-0.41960781812667847 0.32549017667770386 -0.010307788848876953
-0.40392154455184937 0.32549017667770386 -0.0003561973571777344
-0.35686272382736206 0.32549017667770386 0.38083505630493164
-0.34117645025253296 0.32549017667770386 0.39104318618774414
-0.32549017667770386 0.32549017667770386 0.18527936935424805
-0.30980390310287476 0.32549017667770386 0.19203948974609375
-0.29411762952804565 0.32549017667770386 0.24816179275512695
-0.27843135595321655 0.32549017667770386 0.2658519744873047
-0.26274508237838745 0.32549017667770386 0.27406740188598633
-0.24705880880355835 0.32549017667770386 0.27152490615844727
-0.16862744092941284 0.32549017667770386 0.3435797691345215
-0.15294116735458374 0.32549017667770386 0.3498845100402832
0.003921627998352051 0.32549017667770386 0.015580177307128906
0.019607901573181152 0.32549017667770386 0.011135578155517578
0.035294175148010254 0.32549017667770386 0.002814769744873047
0.050980448722839355 0.32549017667770386 -0.005787849426269531
0.06666672229766846 0.32549017667770386 -0.01650094985961914
0.11372554302215576 0.32549017667770386 -0.6304788589477539
0.3490196466445923 0.32549017667770386 -0.6903724670410156
0.3647059202194214 0.32549017667770386 -0.6808376312255859
0.5686274766921997 0.32549017667770386 0.0788884162902832
0.5843137502670288 0.32549017667770386 0.08156776428222656
0.7411764860153198 0.32549017667770386 -0.14368295669555664
0.7568627595901489 0.32549017667770386 -0.13033056259155273
-0.5137255191802979 0.30980390310287476 0.13059139251708984
-0.43529409170150757 0.30980390310287476 -0.025195598602294922
-0.41960781812667847 0.30980390310287476 -0.0184783935546875
-0.34117645025253296 0.30980390310287476 0.4082450866699219
-0.32549017667770386 0.30980390310287476 0.1894230842590332
-0.24705880880355835 0.30980390310287476 0.2881803512573242
-0.23137253522872925 0.30980390310287476 0.29279470443725586
-0.15294116735458374 0.30980390310287476 0.3648371696472168
0.06666672229766846 0.30980390310287476 -0.019950389862060547
0.08235299587249756 0.30980390310287476 -0.024504661560058594
0.09803926944732666 0.30980390310287476 -0.03335714340209961
0.11372554302215576 0.30980390310287476 -0.043305397033691406
0.12941181659698486 0.30980390310287476 -0.05614137649536133
0.3333333730697632 0.30980390310287476 -0.7043113708496094
0.3490196466445923 0.30980390310287476 -0.6958765983581543
0.5843137502670288 0.30980390310287476 0.09717369079589844
0.7568627595901489 0.30980390310287476 -0.11557769775390625
-0.529411792755127 0.29411762952804565 0.1156620979309082
-0.43529409170150757 0.29411762952804565 -0.033779144287109375
-0.37254899740219116 0.29411762952804565 0.1641392707824707
-0.35686272382736206 0.29411762952804565 0.16812515258789062
-0.34117645025253296 0.29411762952804565 0.4182443618774414
-0.32549017667770386 0.29411762952804565 0.42299365997314453
-0.23137253522872925 0.29411762952804565 0.3051285743713379
-0.21568626165390015 0.29411762952804565 0.30960941314697266
-0.15294116735458374 0.29411762952804565 0.37487077713012695
0.08235299587249756 0.29411762952804565 -0.6842947006225586
0.09803926944732666 0.29411762952804565 -0.6843428611755371
0.12941181659698486 0.29411762952804565 -0.0601811408996582
0.14509809017181396 0.29411762952804565 -0.06575775146484375
0.16078436374664307 0.29411762952804565 -0.07693004608154297
0.17647063732147217 0.29411762952804565 -0.08804941177368164
0.19215691089630127 0.29411762952804565 -0.10248613357543945
0.3176470994949341 0.29411762952804565 -0.7168011665344238
0.3333333730697632 0.29411762952804565 -0.709320068359375
0.5843137502670288 0.29411762952804565 0.10712575912475586
0.7568627595901489 0.29411762952804565 -0.11029624938964844
0.772549033164978 0.29411762952804565 -0.09683895111083984
-0.545098066329956 0.27843135595321655 0.10066413879394531
-0.529411792755127 0.27843135595321655 0.10498523712158203
-0.45098036527633667 0.27843135595321655 -0.04224729537963867
-0.43529409170150757 0.27843135595321655 -0.03913307189941406
-0.38823527097702026 0.27843135595321655 0.11553812026977539
-0.37254899740219116 0.27843135595321655 0.17330598831176758
-0.32549017667770386 0.27843135595321655 0.43840694427490234
-0.21568626165390015 0.27843135595321655 0.32805728912353516
-0.15294116735458374 0.27843135595321655 0.38040637969970703
-0.13725489377975464 0.27843135595321655 0.3816089630126953
0.06666672229766846 0.27843135595321655 -0.6987380981445312
0.08235299587249756 0.27843135595321655 -0.6967287063598633
0.19215691089630127 0.27843135595321655 -0.10298728942871094
0.20784318447113037 0.27843135595321655 -0.110687255859375
0.22352945804595947 0.27843135595321655 -0.11943674087524414
0.23921573162078857 0.27843135595321655 -0.12942886352539062
0.3176470994949341 0.27843135595321655 -0.7170186042785645
0.5843137502670288 0.27843135595321655 0.11333465576171875
0.6000000238418579 0.27843135595321655 0.11618947982788086
0.772549033164978 0.27843135595321655 -0.08380985260009766
-0.5607843399047852 0.26274508237838745 0.0844259262084961
-0.545098066329956 0.26274508237838745 0.096527099609375
-0.45098036527633667 0.26274508237838745 -0.04280900955200195
-0.40392154455184937 0.26274508237838745 0.12182998657226562
-0.38823527097702026 0.26274508237838745 0.19001531600952148
-0.32549017667770386 0.26274508237838745 0.45009946823120117
-0.19999998807907104 0.26274508237838745 0.34657955169677734
-0.13725489377975464 0.26274508237838745 0.39200496673583984
0.06666672229766846 0.26274508237838745 -0.6986017227172852
0.23921573162078857 0.26274508237838745 -0.13418245315551758
0.2549020051956177 0.26274508237838745 -0.13770008087158203
0.2705882787704468 0.26274508237838745 -0.14427947998046875
0.2862745523452759 0.26274508237838745 -0.15177536010742188
0.301960825920105 0.26274508237838745 -0.15848779678344727
0.6000000238418579 0.26274508237838745 0.12958955764770508
0.772549033164978 0.26274508237838745 -0.07517385482788086
0.7882353067398071 0.26274508237838745 -0.07088279724121094
-0.5607843399047852 0.24705880880355835 0.08954524993896484
-0.46666663885116577 0.24705880880355835 -0.04368019104003906
-0.45098036527633667 0.24705880880355835 -0.048431396484375
-0.43529409170150757 0.24705880880355835 0.14642620086669922
-0.40392154455184937 0.24705880880355835 0.2142481803894043
-0.32549017667770386 0.24705880880355835 0.45833301544189453
-0.19999998807907104 0.24705880880355835 0.3581576347351074
-0.13725489377975464 0.24705880880355835 0.4000372886657715
0.050980448722839355 0.24705880880355835 -0.7038626670837402
0.06666672229766846 0.24705880880355835 -0.7041516304016113
0.2862745523452759 0.24705880880355835 -0.2314929962158203
0.301960825920105 0.24705880880355835 -0.16463422775268555
0.3176470994949341 0.24705880880355835 -0.1571044921875
0.3333333730697632 0.24705880880355835 -0.15828323364257812
0.3490196466445923 0.24705880880355835 -0.15872859954833984
0.3647059202194214 0.24705880880355835 -0.1629314422607422
0.6000000238418579 0.24705880880355835 0.13932085037231445
0.7882353067398071 0.24705880880355835 -0.05620718002319336
-0.5764706134796143 0.23137253522872925 0.07781791687011719
-0.5607843399047852 0.23137253522872925 0.0850825309753418
-0.4823529124259949 0.23137253522872925 -0.006037712097167969
-0.46666663885116577 0.23137253522872925 0.2724270820617676
-0.45098036527633667 0.23137253522872925 0.31166934967041016
-0.43529409170150757 0.23137253522872925 0.3486595153808594
-0.41960781812667847 0.23137253522872925 0.3682737350463867
-0.40392154455184937 0.23137253522872925 0.21026849746704102
-0.38823527097702026 0.23137253522872925 0.18379545211791992
-0.37254899740219116 0.23137253522872925 0.15610361099243164
-0.32549017667770386 0.23137253522872925 0.4656100273132324
-0.30980390310287476 0.23137253522872925 0.45781898498535156
-0.19999998807907104 0.23137253522872925 0.36443090438842773
-0.18431371450424194 0.23137253522872925 0.36007022857666016
-0.13725489377975464 0.23137253522872925 0.40607738494873047
0.050980448722839355 0.23137253522872925 -0.7059769630432129
0.2549020051956177 0.23137253522872925 -0.3742961883544922
0.2705882787704468 0.23137253522872925 -0.35330629348754883
0.2862745523452759 0.23137253522872925 -0.7019271850585938
0.301960825920105 0.23137253522872925 -0.7046098709106445
0.3647059202194214 0.23137253522872925 -0.1616802215576172
0.3803921937942505 0.23137253522872925 -0.15362262725830078
0.3960784673690796 0.23137253522872925 -0.14921140670776367
0.6000000238418579 0.23137253522872925 0.14780282974243164
0.7882353067398071 0.23137253522872925 -0.04647493362426758
-0.5764706134796143 0.21568626165390015 0.08016538619995117
-0.498039186000824 0.21568626165390015 0.1647019386291504
-0.4823529124259949 0.21568626165390015 0.233367919921875
-0.41960781812667847 0.21568626165390015 0.3798227310180664
-0.40392154455184937 0.21568626165390015 0.3907628059387207
-0.38823527097702026 0.21568626165390015 0.15732526779174805
-0.37254899740219116 0.21568626165390015 0.15643548965454102
-0.35686272382736206 0.21568626165390015 0.15611505508422852
-0.34117645025253296 0.21568626165390015 0.15645742416381836
-0.32549017667770386 0.21568626165390015 0.4694352149963379
-0.30980390310287476 0.21568626165390015 0.46697425842285156
-0.18431371450424194 0.21568626165390015 0.37186336517333984
-0.13725489377975464 0.21568626165390015 0.4098777770996094
0.035294175148010254 0.21568626165390015 -0.7066559791564941
0.050980448722839355 0.21568626165390015 -0.7098355293273926
0.23921573162078857 0.21568626165390015 -0.3955087661743164
0.2549020051956177 0.21568626165390015 -0.3786797523498535
0.2705882787704468 0.21568626165390015 -0.8134198188781738
0.3960784673690796 0.21568626165390015 -0.1377263069152832
0.4117647409439087 0.21568626165390015 -0.12828588485717773
0.6000000238418579 0.21568626165390015 0.1526961326599121
0.615686297416687 0.21568626165390015 0.15377330780029297
0.7882353067398071 0.21568626165390015 -0.04024219512939453
0.8039215803146362 0.21568626165390015 -0.03785991668701172
-0.5764706134796143 0.19999998807907104 0.07734394073486328
-0.498039186000824 0.19999998807907104 0.20595359802246094
-0.4823529124259949 0.19999998807907104 0.0629720687866211
-0.43529409170150757 0.19999998807907104 -0.04206705093383789
-0.40392154455184937 0.19999998807907104 0.40166473388671875
-0.38823527097702026 0.19999998807907104 0.39319944381713867
-0.32549017667770386 0.19999998807907104 0.47240114212036133
-0.30980390310287476 0.19999998807907104 0.47367048263549805
-0.29411762952804565 0.19999998807907104 0.17772483825683594
-0.27843135595321655 0.19999998807907104 0.15876245498657227
-0.26274508237838745 0.19999998807907104 0.14749670028686523
-0.18431371450424194 0.19999998807907104 0.37691354751586914
-0.13725489377975464 0.19999998807907104 0.41374683380126953
0.035294175148010254 0.19999998807907104 -0.7049837112426758
0.22352945804595947 0.19999998807907104 -0.41913461685180664
0.23921573162078857 0.19999998807907104 -0.41031551361083984
0.2549020051956177 0.19999998807907104 -0.8295798301696777
0.2705882787704468 0.19999998807907104 -0.8245353698730469
0.4117647409439087 0.19999998807907104 -0.11478328704833984
0.4274510145187378 0.19999998807907104 -0.10985898971557617
0.6000000238418579 0.19999998807907104 0.15441226959228516
0.615686297416687 0.19999998807907104 0.16379356384277344
0.8039215803146362 0.19999998807907104 -0.025815963745117188
-0.5921568870544434 0.18431371450424194 0.07361125946044922
-0.5137255191802979 0.18431371450424194 0.195220947265625
-0.498039186000824 0.18431371450424194 0.17242717742919922
-0.4823529124259949 0.18431371450424194 0.0697321891784668
-0.43529409170150757 0.18431371450424194 -0.052523136138916016
-0.40392154455184937 0.18431371450424194 0.40119504928588867
-0.38823527097702026 0.18431371450424194 0.40684986114501953
-0.32549017667770386 0.18431371450424194 0.4775214195251465
-0.30980390310287476 0.18431371450424194 0.4787917137145996
-0.26274508237838745 0.18431371450424194 0.14157485961914062
-0.24705880880355835 0.18431371450424194 0.13664531707763672
-0.23137253522872925 0.18431371450424194 0.1334857940673828
-0.21568626165390015 0.18431371450424194 0.12730979919433594
-0.19999998807907104 0.18431371450424194 0.1260690689086914
-0.18431371450424194 0.18431371450424194 0.38138866424560547
-0.13725489377975464 0.18431371450424194 0.41991233825683594
0.019607901573181152 0.18431371450424194 -0.7044172286987305
0.035294175148010254 0.18431371450424194 -0.7060465812683105
0.20784318447113037 0.18431371450424194 -0.44151926040649414
0.2549020051956177 0.18431371450424194 -0.8395414352416992
0.4274510145187378 0.18431371450424194 -0.09262228012084961
0.615686297416687 0.18431371450424194 0.1714344024658203
0.8039215803146362 0.18431371450424194 -0.017745494842529297
-0.5921568870544434 0.16862744092941284 0.07450389862060547
-0.5137255191802979 0.16862744092941284 0.1944890022277832
-0.498039186000824 0.16862744092941284 0.05986452102661133
-0.45098036527633667 0.16862744092941284 -0.05756378173828125
-0.43529409170150757 0.16862744092941284 -0.063629150390625
-0.38823527097702026 0.16862744092941284 0.41402721405029297
-0.32549017667770386 0.16862744092941284 0.4815249443054199
-0.30980390310287476 0.16862744092941284 0.48229455947875977
-0.19999998807907104 0.16862744092941284 0.12245655059814453
-0.18431371450424194 0.16862744092941284 0.3844585418701172
-0.16862744092941284 0.16862744092941284 0.1130533218383789
-0.15294116735458374 0.16862744092941284 0.09741401672363281
-0.13725489377975464 0.16862744092941284 0.4281291961669922
0.019607901573181152 0.16862744092941284 -0.704038143157959
0.19215691089630127 0.16862744092941284 -0.4562039375305176
0.23921573162078857 0.16862744092941284 -0.8497557640075684
0.2549020051956177 0.16862744092941284 -0.8587260246276855
0.4274510145187378 0.16862744092941284 -0.08566904067993164
0.4431372880935669 0.16862744092941284 -0.0758671760559082
0.615686297416687 0.16862744092941284 0.1786942481994629
0.8039215803146362 0.16862744092941284 -0.010277271270751953
-0.5921568870544434 0.15294116735458374 0.07466602325439453
-0.529411792755127 0.15294116735458374 0.19416332244873047
-0.5137255191802979 0.15294116735458374 0.1934494972229004
-0.498039186000824 0.15294116735458374 0.043894290924072266
-0.45098036527633667 0.15294116735458374 -0.05810880661010742
-0.38823527097702026 0.15294116735458374 0.4187488555908203
-0.32549017667770386 0.15294116735458374 0.48480224609375
-0.30980390310287476 0.15294116735458374 0.4831352233886719
-0.18431371450424194 0.15294116735458374 0.38712596893310547
-0.15294116735458374 0.15294116735458374 0.09161567687988281
-0.13725489377975464 0.15294116735458374 0.4347515106201172
-0.12156862020492554 0.15294116735458374 0.04863262176513672
-0.10588234663009644 0.15294116735458374 0.05082273483276367
-0.09019607305526733 0.15294116735458374 0.041806697845458984
0.003921627998352051 0.15294116735458374 -0.7045435905456543
0.019607901573181152 0.15294116735458374 -0.7151880264282227
0.17647063732147217 0.15294116735458374 -0.46558666229248047
0.19215691089630127 0.15294116735458374 -0.46451330184936523
0.23921573162078857 0.15294116735458374 -0.8602581024169922
0.4431372880935669 0.15294116735458374 -0.06238508224487305
0.615686297416687 0.15294116735458374 0.18613290786743164
0.8039215803146362 0.15294116735458374 -0.0036077499389648438
-0.6078431606292725 0.13725489377975464 0.07037019729614258
-0.5921568870544434 0.13725489377975464 0.07431507110595703
-0.529411792755127 0.13725489377975464 0.20055723190307617
-0.5137255191802979 0.13725489377975464 0.08428478240966797
-0.498039186000824 0.13725489377975464 0.021250247955322266
-0.46666663885116577 0.13725489377975464 -0.041492462158203125
-0.45098036527633667 0.13725489377975464 -0.05376148223876953
-0.38823527097702026 0.13725489377975464 0.42182016372680664
-0.32549017667770386 0.13725489377975464 0.48626184463500977
-0.18431371450424194 0.13725489377975464 0.38965415954589844
-0.13725489377975464 0.13725489377975464 0.4374418258666992
-0.09019607305526733 0.13725489377975464 0.0419611930847168
-0.07450979948043823 0.13725489377975464 0.046793460845947266
-0.05882352590560913 0.13725489377975464 0.05139780044555664
-0.04313725233078003 0.13725489377975464 0.053141117095947266
-0.027450978755950928 0.13725489377975464 0.04829549789428711
0.003921627998352051 0.13725489377975464 -0.715385913848877
0.16078436374664307 0.13725489377975464 -0.47608423233032227
0.17647063732147217 0.13725489377975464 -0.47162961959838867
0.22352945804595947 0.13725489377975464 -0.8700075149536133
0.4431372880935669 0.13725489377975464 -0.05434465408325195
0.458823561668396 0.13725489377975464 -0.054004669189453125
0.615686297416687 0.13725489377975464 0.19339275360107422
0.8039215803146362 0.13725489377975464 0.001445770263671875
0.8196078538894653 0.13725489377975464 0.0039014816284179688
-0.6078431606292725 0.12156862020492554 0.07692384719848633
-0.529411792755127 0.12156862020492554 0.20615720748901367
-0.5137255191802979 0.12156862020492554 0.03221559524536133
-0.46666663885116577 0.12156862020492554 -0.036548614501953125
-0.40392154455184937 0.12156862020492554 0.42307567596435547
-0.38823527097702026 0.12156862020492554 0.4241518974304199
-0.32549017667770386 0.12156862020492554 0.4878230094909668
-0.18431371450424194 0.12156862020492554 0.39438343048095703
-0.13725489377975464 0.12156862020492554 0.44435596466064453
-0.027450978755950928 0.12156862020492554 0.05013084411621094
-0.011764705181121826 0.12156862020492554 0.04714345932006836
0.003921627998352051 0.12156862020492554 0.0417933464050293
0.019607901573181152 0.12156862020492554 0.03396320343017578
0.035294175148010254 0.12156862020492554 0.022808074951171875
0.16078436374664307 0.12156862020492554 -0.4799046516418457
0.22352945804595947 0.12156862020492554 -0.8738760948181152
0.458823561668396 0.12156862020492554 -0.040555477142333984
0.615686297416687 0.12156862020492554 0.1997685432434082
0.8039215803146362 0.12156862020492554 0.00652313232421875
0.8196078538894653 0.12156862020492554 0.013597965240478516
-0.6078431606292725 0.10588234663009644 0.08151912689208984
-0.529411792755127 0.10588234663009644 0.2111663818359375
-0.5137255191802979 0.10588234663009644 0.01037454605102539
-0.46666663885116577 0.10588234663009644 -0.03390359878540039
-0.40392154455184937 0.10588234663009644 0.4306187629699707
-0.38823527097702026 0.10588234663009644 0.4247560501098633
-0.32549017667770386 0.10588234663009644 0.48935365676879883
-0.18431371450424194 0.10588234663009644 0.40031003952026367
-0.13725489377975464 0.10588234663009644 0.4504079818725586
-0.011764705181121826 0.10588234663009644 -0.7441468238830566
0.035294175148010254 0.10588234663009644 0.024179935455322266
0.050980448722839355 0.10588234663009644 0.017572402954101562
0.06666672229766846 0.10588234663009644 0.011573314666748047
0.08235299587249756 0.10588234663009644 0.0015583038330078125
0.14509809017181396 0.10588234663009644 -0.48555994033813477
0.20784318447113037 0.10588234663009644 -0.8833780288696289
0.22352945804595947 0.10588234663009644 -0.8809547424316406
0.458823561668396 0.10588234663009644 -0.03165483474731445
0.615686297416687 0.10588234663009644 0.20511341094970703
0.8196078538894653 0.10588234663009644 0.02096843719482422
-0.6078431606292725 0.09019607305526733 0.08608722686767578
-0.529411792755127 0.09019607305526733 0.21753311157226562
-0.5137255191802979 0.09019607305526733 0.0027799606323242188
-0.46666663885116577 0.09019607305526733 -0.0314326286315918
-0.40392154455184937 0.09019607305526733 0.4349846839904785
-0.32549017667770386 0.09019607305526733 0.48935890197753906
-0.18431371450424194 0.09019607305526733 0.4046602249145508
-0.13725489377975464 0.09019607305526733 0.45418882369995117
-0.011764705181121826 0.09019607305526733 -0.7478122711181641
0.08235299587249756 0.09019607305526733 -0.0033965110778808594
0.09803926944732666 0.09019607305526733 -0.008061408996582031
0.11372554302215576 0.09019607305526733 -0.01715993881225586
0.12941181659698486 0.09019607305526733 -0.028636932373046875
0.14509809017181396 0.09019607305526733 -0.044381141662597656
0.20784318447113037 0.09019607305526733 -0.8884005546569824
0.458823561668396 0.09019607305526733 -0.02424001693725586
0.615686297416687 0.09019607305526733 0.20941400527954102
0.8196078538894653 0.09019607305526733 0.026632308959960938
-0.6078431606292725 0.07450979948043823 0.09110260009765625
-0.529411792755127 0.07450979948043823 0.22568035125732422
-0.5137255191802979 0.07450979948043823 0.004856586456298828
-0.46666663885116577 0.07450979948043823 -0.026803016662597656
-0.41960781812667847 0.07450979948043823 0.43079566955566406
-0.40392154455184937 0.07450979948043823 0.4343404769897461
-0.34117645025253296 0.07450979948043823 0.4860224723815918
-0.32549017667770386 0.07450979948043823 0.48456764221191406
-0.19999998807907104 0.07450979948043823 0.4085512161254883
-0.18431371450424194 0.07450979948043823 0.40778398513793945
-0.15294116735458374 0.07450979948043823 0.4556107521057129
-0.13725489377975464 0.07450979948043823 0.45536184310913086
-0.027450978755950928 0.07450979948043823 -0.7434229850769043
-0.011764705181121826 0.07450979948043823 -0.7499027252197266
0.12941181659698486 0.07450979948043823 -0.5104050636291504
0.14509809017181396 0.07450979948043823 -0.04179096221923828
0.16078436374664307 0.07450979948043823 -0.049166202545166016
0.17647063732147217 0.07450979948043823 -0.0592188835144043
0.19215691089630127 0.07450979948043823 -0.06965398788452148
0.20784318447113037 0.07450979948043823 -0.08349227905273438
0.458823561668396 0.07450979948043823 -0.01771402359008789
0.615686297416687 0.07450979948043823 0.21326017379760742
0.8196078538894653 0.07450979948043823 0.03272676467895508
-0.6078431606292725 0.05882352590560913 0.09557580947875977
-0.529411792755127 0.05882352590560913 0.23371648788452148
-0.5137255191802979 0.05882352590560913 0.014210700988769531
-0.4823529124259949 0.05882352590560913 -0.004825115203857422
-0.46666663885116577 0.05882352590560913 -0.012238025665283203
-0.41960781812667847 0.05882352590560913 0.4299736022949219
-0.34117645025253296 0.05882352590560913 0.48744869232177734
-0.19999998807907104 0.05882352590560913 0.4113469123840332
-0.15294116735458374 0.05882352590560913 0.4619617462158203
-0.027450978755950928 0.05882352590560913 -0.7424430847167969
0.12941181659698486 0.05882352590560913 -0.520045280456543
0.19215691089630127 0.05882352590560913 -0.9299712181091309
0.20784318447113037 0.05882352590560913 -0.07747793197631836
0.22352945804595947 0.05882352590560913 -0.0788578987121582
0.23921573162078857 0.05882352590560913 -0.0817270278930664
0.2549020051956177 0.05882352590560913 -0.09248685836791992
0.458823561668396 0.05882352590560913 -0.014663219451904297
0.4745098352432251 0.05882352590560913 -0.019496917724609375
0.615686297416687 0.05882352590560913 0.2169194221496582
0.8196078538894653 0.05882352590560913 0.038865089416503906
-0.6078431606292725 0.04313725233078003 0.10028457641601562
-0.529411792755127 0.04313725233078003 0.23913908004760742
-0.5137255191802979 0.04313725233078003 0.24221467971801758
-0.4823529124259949 0.04313725233078003 0.008550167083740234
-0.46666663885116577 0.04313725233078003 0.022520065307617188
-0.43529409170150757 0.04313725233078003 0.41875553131103516
-0.41960781812667847 0.04313725233078003 0.4224262237548828
-0.34117645025253296 0.04313725233078003 0.48578834533691406
-0.19999998807907104 0.04313725233078003 0.4129915237426758
-0.15294116735458374 0.04313725233078003 0.46404314041137695
-0.027450978755950928 0.04313725233078003 -0.7417664527893066
0.11372554302215576 0.04313725233078003 -0.5329375267028809
0.19215691089630127 0.04313725233078003 -0.9332342147827148
0.2549020051956177 0.04313725233078003 -0.09916019439697266
0.2705882787704468 0.04313725233078003 -0.10312414169311523
0.2862745523452759 0.04313725233078003 -0.1134796142578125
0.301960825920105 0.04313725233078003 -0.12536287307739258
0.3176470994949341 0.04313725233078003 -0.1401839256286621
0.458823561668396 0.04313725233078003 -0.013185501098632812
0.4745098352432251 0.04313725233078003 -0.014873027801513672
0.615686297416687 0.04313725233078003 0.220428466796875
0.8196078538894653 0.04313725233078003 0.04471874237060547
-0.6078431606292725 0.027450978755950928 0.106414794921875
-0.529411792755127 0.027450978755950928 -0.009160041809082031
-0.5137255191802979 0.027450978755950928 0.260622501373291
-0.4823529124259949 0.027450978755950928 0.03380298614501953
-0.46666663885116577 0.027450978755950928 0.0671687126159668
-0.45098036527633667 0.027450978755950928 0.39893293380737305
-0.43529409170150757 0.027450978755950928 0.41281652450561523
-0.35686272382736206 0.027450978755950928 0.4785470962524414
-0.34117645025253296 0.027450978755950928 0.4784374237060547
-0.19999998807907104 0.027450978755950928 0.41251087188720703
-0.15294116735458374 0.027450978755950928 0.4650731086730957
-0.04313725233078003 0.027450978755950928 -0.7256326675415039
-0.027450978755950928 0.027450978755950928 -0.740058422088623
0.11372554302215576 0.027450978755950928 -0.5367012023925781
0.17647063732147217 0.027450978755950928 -0.931696891784668
0.19215691089630127 0.027450978755950928 -0.9350466728210449
0.3176470994949341 0.027450978755950928 -0.14776134490966797
0.3333333730697632 0.027450978755950928 -0.15477466583251953
0.3490196466445923 0.027450978755950928 -0.16399192810058594
0.3647059202194214 0.027450978755950928 -0.1737194061279297
0.3803921937942505 0.027450978755950928 -0.18530893325805664
0.458823561668396 0.027450978755950928 -0.00801992416381836
0.4745098352432251 0.027450978755950928 -0.009203910827636719
0.615686297416687 0.027450978755950928 0.22404956817626953
0.8196078538894653 0.027450978755950928 0.04912614822387695
-0.6078431606292725 0.011764705181121826 0.11452817916870117
-0.529411792755127 0.011764705181121826 -0.009188652038574219
-0.5137255191802979 0.011764705181121826 0.2760181427001953
-0.498039186000824 0.011764705181121826 0.30708885192871094
-0.4823529124259949 0.011764705181121826 0.33898115158081055
-0.46666663885116577 0.011764705181121826 0.36453866958618164
-0.45098036527633667 0.011764705181121826 0.38483667373657227
-0.35686272382736206 0.011764705181121826 0.4781203269958496
-0.21568626165390015 0.011764705181121826 0.40725088119506836
-0.19999998807907104 0.011764705181121826 0.40761899948120117
-0.16862744092941284 0.011764705181121826 0.46405601501464844
-0.15294116735458374 0.011764705181121826 0.461977481842041
-0.04313725233078003 0.011764705181121826 -0.7232751846313477
0.09803926944732666 0.011764705181121826 -0.5399856567382812
0.11372554302215576 0.011764705181121826 -0.5404505729675293
0.17647063732147217 0.011764705181121826 -0.9252519607543945
0.3803921937942505 0.011764705181121826 -0.18274927139282227
0.3960784673690796 0.011764705181121826 -0.18725967407226562
0.4117647409439087 0.011764705181121826 -0.1907505989074707
0.4274510145187378 0.011764705181121826 -0.1901416778564453
0.4431372880935669 0.011764705181121826 -0.18472957611083984
0.458823561668396 0.011764705181121826 -0.002899169921875
0.4745098352432251 0.011764705181121826 -0.00530242919921875
0.615686297416687 0.011764705181121826 0.22760629653930664
0.8196078538894653 0.011764705181121826 0.05324077606201172
-0.6078431606292725 -0.003921627998352051 0.12417173385620117
-0.529411792755127 -0.003921627998352051 -0.006994724273681641
-0.4823529124259949 -0.003921627998352051 0.3268270492553711
-0.46666663885116577 -0.003921627998352051 0.28577756881713867
-0.45098036527633667 -0.003921627998352051 0.2651958465576172
-0.43529409170150757 -0.003921627998352051 0.26033973693847656
-0.41960781812667847 -0.003921627998352051 0.24993133544921875
-0.37254899740219116 -0.003921627998352051 0.4693317413330078
-0.35686272382736206 -0.003921627998352051 0.4734201431274414
-0.21568626165390015 -0.003921627998352051 0.4047660827636719
-0.16862744092941284 -0.003921627998352051 0.46820783615112305
-0.04313725233078003 -0.003921627998352051 -0.7239093780517578
0.09803926944732666 -0.003921627998352051 -0.5384759902954102
0.17647063732147217 -0.003921627998352051 -0.9231767654418945
0.4274510145187378 -0.003921627998352051 -0.19794130325317383
0.4431372880935669 -0.003921627998352051 -0.1860032081604004
0.458823561668396 -0.003921627998352051 0.0007419586181640625
0.4745098352432251 -0.003921627998352051 -0.00287628173828125
0.4901961088180542 -0.003921627998352051 -0.3135809898376465
0.615686297416687 -0.003921627998352051 0.2302260398864746
0.8196078538894653 -0.003921627998352051 0.056508541107177734
-0.6078431606292725 -0.019607901573181152 0.13333606719970703
-0.5921568870544434 -0.019607901573181152 0.13292884826660156
-0.529411792755127 -0.019607901573181152 -0.002578258514404297
-0.4823529124259949 -0.019607901573181152 0.0038895606994628906
-0.46666663885116577 -0.019607901573181152 0.030454158782958984
-0.43529409170150757 -0.019607901573181152 0.2471923828125
-0.41960781812667847 -0.019607901573181152 0.24256324768066406
-0.40392154455184937 -0.019607901573181152 0.22920465469360352
-0.38823527097702026 -0.019607901573181152 0.21680593490600586
-0.37254899740219116 -0.019607901573181152 0.4685173034667969
-0.23137253522872925 -0.019607901573181152 0.39390039443969727
-0.21568626165390015 -0.019607901573181152 0.39822816848754883
-0.16862744092941284 -0.019607901573181152 0.46814537048339844
-0.04313725233078003 -0.019607901573181152 -0.7272453308105469
0.09803926944732666 -0.019607901573181152 -0.5406379699707031
0.16078436374664307 -0.019607901573181152 -0.9184751510620117
0.17647063732147217 -0.019607901573181152 -0.9223198890686035
0.458823561668396 -0.019607901573181152 0.007230281829833984
0.4745098352432251 -0.019607901573181152 -0.32205963134765625
0.4901961088180542 -0.019607901573181152 -0.307769775390625
0.5058823823928833 -0.019607901573181152 -0.3043365478515625
0.5215686559677124 -0.019607901573181152 -0.3073844909667969
0.615686297416687 -0.019607901573181152 0.23221254348754883
0.8196078538894653 -0.019607901573181152 0.05958080291748047
-0.5921568870544434 -0.035294175148010254 0.15220975875854492
-0.529411792755127 -0.035294175148010254 0.005965709686279297
-0.4823529124259949 -0.035294175148010254 -0.002350330352783203
-0.46666663885116577 -0.035294175148010254 0.011411190032958984
-0.38823527097702026 -0.035294175148010254 0.4554443359375
-0.37254899740219116 -0.035294175148010254 0.45517826080322266
-0.35686272382736206 -0.035294175148010254 0.1745901107788086
-0.34117645025253296 -0.035294175148010254 0.15694332122802734
-0.32549017667770386 -0.035294175148010254 0.1446671485900879
-0.30980390310287476 -0.035294175148010254 0.13736391067504883
-0.23137253522872925 -0.035294175148010254 0.39301061630249023
-0.18431371450424194 -0.035294175148010254 0.4666562080383301
-0.16862744092941284 -0.035294175148010254 0.45827674865722656
-0.05882352590560913 -0.035294175148010254 -0.7213892936706543
-0.04313725233078003 -0.035294175148010254 -0.7277698516845703
0.08235299587249756 -0.035294175148010254 -0.5488314628601074
0.09803926944732666 -0.035294175148010254 -0.5439486503601074
0.16078436374664307 -0.035294175148010254 -0.9153518676757812
0.4431372880935669 -0.035294175148010254 -0.4057121276855469
0.458823561668396 -0.035294175148010254 0.013239860534667969
0.5215686559677124 -0.035294175148010254 -0.2869687080383301
0.5372549295425415 -0.035294175148010254 -0.27483654022216797
0.6000000238418579 -0.035294175148010254 0.23320436477661133
0.615686297416687 -0.035294175148010254 0.23242759704589844
0.8039215803146362 -0.035294175148010254 0.05471611022949219
0.8196078538894653 -0.035294175148010254 0.061480045318603516
-0.5921568870544434 -0.050980448722839355 0.16667461395263672
-0.529411792755127 -0.050980448722839355 0.021407604217529297
-0.46666663885116577 -0.050980448722839355 0.012074947357177734
-0.40392154455184937 -0.050980448722839355 0.43786048889160156
-0.38823527097702026 -0.050980448722839355 0.44621944427490234
-0.30980390310287476 -0.050980448722839355 0.1441173553466797
-0.29411762952804565 -0.050980448722839355 0.14144611358642578
-0.27843135595321655 -0.050980448722839355 0.13708925247192383
-0.26274508237838745 -0.050980448722839355 0.13527870178222656
-0.24705880880355835 -0.050980448722839355 0.38272762298583984
-0.23137253522872925 -0.050980448722839355 0.3869647979736328
-0.18431371450424194 -0.050980448722839355 0.46590662002563477
-0.05882352590560913 -0.050980448722839355 -0.718193531036377
0.08235299587249756 -0.050980448722839355 -0.5456066131591797
0.16078436374664307 -0.050980448722839355 -0.9129238128662109
0.4274510145187378 -0.050980448722839355 -0.414914608001709
0.4431372880935669 -0.050980448722839355 -0.41576194763183594
0.458823561668396 -0.050980448722839355 0.014980792999267578
0.5372549295425415 -0.050980448722839355 -0.2586092948913574
0.6000000238418579 -0.050980448722839355 0.23823308944702148
0.8039215803146362 -0.050980448722839355 0.05902242660522461
0.8196078538894653 -0.050980448722839355 0.0627589225769043
-0.5921568870544434 -0.06666672229766846 0.17616796493530273
-0.5764706134796143 -0.06666672229766846 0.18367528915405273
-0.529411792755127 -0.06666672229766846 0.03641986846923828
-0.5137255191802979 -0.06666672229766846 0.01885700225830078
-0.46666663885116577 -0.06666672229766846 0.017570018768310547
-0.41960781812667847 -0.06666672229766846 0.4185662269592285
-0.40392154455184937 -0.06666672229766846 0.4292182922363281
-0.24705880880355835 -0.06666672229766846 0.38156557083129883
-0.23137253522872925 -0.06666672229766846 0.0562891960144043
-0.21568626165390015 -0.06666672229766846 0.0371546745300293
-0.19999998807907104 -0.06666672229766846 0.45424413681030273
-0.18431371450424194 -0.06666672229766846 0.45363569259643555
-0.05882352590560913 -0.06666672229766846 -0.7153701782226562
0.08235299587249756 -0.06666672229766846 -0.5417981147766113
0.14509809017181396 -0.06666672229766846 -0.9082622528076172
0.16078436374664307 -0.06666672229766846 -0.9084677696228027
0.4274510145187378 -0.06666672229766846 -0.4221959114074707
0.458823561668396 -0.06666672229766846 0.016044139862060547
0.5372549295425415 -0.06666672229766846 -0.24975204467773438
0.6000000238418579 -0.06666672229766846 0.24174213409423828
0.8039215803146362 -0.06666672229766846 0.06293010711669922
0.8196078538894653 -0.06666672229766846 0.06255388259887695
-0.5764706134796143 -0.08235299587249756 0.19955921173095703
-0.5607843399047852 -0.08235299587249756 0.20261096954345703
-0.529411792755127 -0.08235299587249756 0.05333852767944336
-0.5137255191802979 -0.08235299587249756 0.032874107360839844
-0.46666663885116577 -0.08235299587249756 0.029135704040527344
-0.45098036527633667 -0.08235299587249756 0.04540586471557617
-0.43529409170150757 -0.08235299587249756 0.3960390090942383
-0.41960781812667847 -0.08235299587249756 0.41044187545776367
-0.26274508237838745 -0.08235299587249756 0.37059926986694336
-0.19999998807907104 -0.08235299587249756 0.44959354400634766
-0.18431371450424194 -0.08235299587249756 0.054119110107421875
-0.16862744092941284 -0.08235299587249756 0.04548501968383789
-0.15294116735458374 -0.08235299587249756 0.03284311294555664
-0.13725489377975464 -0.08235299587249756 0.02760457992553711
-0.05882352590560913 -0.08235299587249756 -0.7095832824707031
0.08235299587249756 -0.08235299587249756 -0.5380740165710449
0.14509809017181396 -0.08235299587249756 -0.9012932777404785
0.4117647409439087 -0.08235299587249756 -0.4251670837402344
0.4274510145187378 -0.08235299587249756 -0.4282083511352539
0.458823561668396 -0.08235299587249756 0.016463756561279297
0.5372549295425415 -0.08235299587249756 -0.2409987449645996
0.6000000238418579 -0.08235299587249756 0.24423933029174805
0.8039215803146362 -0.08235299587249756 0.06587362289428711
-0.5607843399047852 -0.09803926944732666 0.22015047073364258
-0.545098066329956 -0.09803926944732666 0.23022127151489258
-0.5137255191802979 -0.09803926944732666 0.04529428482055664
-0.46666663885116577 -0.09803926944732666 0.3456296920776367
-0.45098036527633667 -0.09803926944732666 0.37169504165649414
-0.43529409170150757 -0.09803926944732666 0.3827810287475586
-0.27843135595321655 -0.09803926944732666 0.3579850196838379
-0.26274508237838745 -0.09803926944732666 0.3577871322631836
-0.21568626165390015 -0.09803926944732666 0.4363231658935547
-0.19999998807907104 -0.09803926944732666 0.4402632713317871
-0.13725489377975464 -0.09803926944732666 0.026837825775146484
-0.12156862020492554 -0.09803926944732666 0.02322673797607422
-0.10588234663009644 -0.09803926944732666 0.013325214385986328
-0.09019607305526733 -0.09803926944732666 0.0015583038330078125
-0.07450979948043823 -0.09803926944732666 -0.49842309951782227
-0.05882352590560913 -0.09803926944732666 -0.706244945526123
0.08235299587249756 -0.09803926944732666 -0.5302143096923828
0.14509809017181396 -0.09803926944732666 -0.8933944702148438
0.4117647409439087 -0.09803926944732666 -0.42379188537597656
0.458823561668396 -0.09803926944732666 0.016566753387451172
0.5372549295425415 -0.09803926944732666 -0.23265933990478516
0.6000000238418579 -0.09803926944732666 0.24468612670898438
0.8039215803146362 -0.09803926944732666 0.06798362731933594
-0.545098066329956 -0.11372554302215576 0.24065303802490234
-0.529411792755127 -0.11372554302215576 0.2606844902038574
-0.5137255191802979 -0.11372554302215576 0.28114843368530273
-0.498039186000824 -0.11372554302215576 0.3033308982849121
-0.4823529124259949 -0.11372554302215576 0.3259873390197754
-0.46666663885116577 -0.11372554302215576 0.3404865264892578
-0.45098036527633667 -0.11372554302215576 0.1009669303894043
-0.43529409170150757 -0.11372554302215576 0.12863540649414062
-0.29411762952804565 -0.11372554302215576 0.34376049041748047
-0.27843135595321655 -0.11372554302215576 0.34810352325439453
-0.21568626165390015 -0.11372554302215576 0.4329986572265625
-0.07450979948043823 -0.11372554302215576 -0.017348289489746094
-0.05882352590560913 -0.11372554302215576 -0.029328346252441406
-0.04313725233078003 -0.11372554302215576 -0.04043865203857422
-0.027450978755950928 -0.11372554302215576 -0.04911947250366211
0.08235299587249756 -0.11372554302215576 -0.5143532752990723
0.14509809017181396 -0.11372554302215576 -0.8872437477111816
0.3960784673690796 -0.11372554302215576 -0.430269718170166
0.4117647409439087 -0.11372554302215576 -0.42203378677368164
0.4431372880935669 -0.11372554302215576 0.01874828338623047
0.458823561668396 -0.11372554302215576 0.01293325424194336
0.5372549295425415 -0.11372554302215576 -0.22595596313476562
0.5843137502670288 -0.11372554302215576 0.23943710327148438
0.6000000238418579 -0.11372554302215576 0.2436976432800293
0.8039215803146362 -0.11372554302215576 0.0689544677734375
-0.5137255191802979 -0.12941181659698486 0.10483789443969727
-0.498039186000824 -0.12941181659698486 0.07205533981323242
-0.4823529124259949 -0.12941181659698486 0.2054586410522461
-0.46666663885116577 -0.12941181659698486 0.21110963821411133
-0.45098036527633667 -0.12941181659698486 0.1996011734008789
-0.43529409170150757 -0.12941181659698486 0.14896202087402344
-0.41960781812667847 -0.12941181659698486 0.15949773788452148
-0.32549017667770386 -0.12941181659698486 0.3093128204345703
-0.30980390310287476 -0.12941181659698486 0.32850027084350586
-0.29411762952804565 -0.12941181659698486 0.3341856002807617
-0.23137253522872925 -0.12941181659698486 0.42165613174438477
-0.07450979948043823 -0.12941181659698486 -0.7068476676940918
-0.05882352590560913 -0.12941181659698486 -0.7136106491088867
-0.027450978755950928 -0.12941181659698486 -0.05602693557739258
-0.011764705181121826 -0.12941181659698486 -0.061347007751464844
0.003921627998352051 -0.12941181659698486 -0.06876468658447266
0.019607901573181152 -0.12941181659698486 -0.07716703414916992
0.035294175148010254 -0.12941181659698486 -0.092864990234375
0.06666672229766846 -0.12941181659698486 -0.48825645446777344
0.08235299587249756 -0.12941181659698486 -0.4962310791015625
0.14509809017181396 -0.12941181659698486 -0.8829336166381836
0.3960784673690796 -0.12941181659698486 -0.42247438430786133
0.4117647409439087 -0.12941181659698486 -0.4181499481201172
0.4431372880935669 -0.12941181659698486 0.020239830017089844
0.5372549295425415 -0.12941181659698486 -0.22249937057495117
0.5843137502670288 -0.12941181659698486 0.24506568908691406
0.6000000238418579 -0.12941181659698486 0.2391972541809082
0.8039215803146362 -0.12941181659698486 0.06974601745605469
-0.498039186000824 -0.14509809017181396 0.08215522766113281
-0.43529409170150757 -0.14509809017181396 0.20247936248779297
-0.41960781812667847 -0.14509809017181396 0.20943737030029297
-0.40392154455184937 -0.14509809017181396 0.22141027450561523
-0.38823527097702026 -0.14509809017181396 0.23349809646606445
-0.37254899740219116 -0.14509809017181396 0.2503232955932617
-0.35686272382736206 -0.14509809017181396 0.272857666015625
-0.34117645025253296 -0.14509809017181396 0.29372072219848633
-0.32549017667770386 -0.14509809017181396 0.30910778045654297
-0.24705880880355835 -0.14509809017181396 0.40578508377075195
-0.23137253522872925 -0.14509809017181396 0.4111671447753906
-0.07450979948043823 -0.14509809017181396 -0.7025613784790039
0.035294175148010254 -0.14509809017181396 -0.09299278259277344
0.050980448722839355 -0.14509809017181396 -0.10388422012329102
0.06666672229766846 -0.14509809017181396 -0.12151050567626953
0.08235299587249756 -0.14509809017181396 -0.1374673843383789
0.09803926944732666 -0.14509809017181396 -0.15428590774536133
0.12941181659698486 -0.14509809017181396 -0.8753724098205566
0.14509809017181396 -0.14509809017181396 -0.8847389221191406
0.3960784673690796 -0.14509809017181396 -0.4147014617919922
0.4431372880935669 -0.14509809017181396 0.019467830657958984
0.5372549295425415 -0.14509809017181396 -0.22156333923339844
0.5843137502670288 -0.14509809017181396 0.2458796501159668
0.8039215803146362 -0.14509809017181396 0.07005834579467773
-0.498039186000824 -0.16078436374664307 0.08579206466674805
-0.38823527097702026 -0.16078436374664307 0.23547029495239258
-0.37254899740219116 -0.16078436374664307 0.25247812271118164
-0.35686272382736206 -0.16078436374664307 0.26688194274902344
-0.26274508237838745 -0.16078436374664307 0.3881673812866211
-0.24705880880355835 -0.16078436374664307 0.3985748291015625
-0.07450979948043823 -0.16078436374664307 -0.6961889266967773
0.06666672229766846 -0.16078436374664307 -0.3979673385620117
0.08235299587249756 -0.16078436374664307 -0.40509939193725586
0.09803926944732666 -0.16078436374664307 -0.15290069580078125
0.11372554302215576 -0.16078436374664307 -0.16096830368041992
0.12941181659698486 -0.16078436374664307 -0.16975784301757812
0.14509809017181396 -0.16078436374664307 -0.178436279296875
0.16078436374664307 -0.16078436374664307 -0.18444490432739258
0.3960784673690796 -0.16078436374664307 -0.4076995849609375
0.4274510145187378 -0.16078436374664307 0.015065193176269531
0.4431372880935669 -0.16078436374664307 0.018033504486083984
0.5215686559677124 -0.16078436374664307 -0.22652149200439453
0.5372549295425415 -0.16078436374664307 -0.22426223754882812
0.5843137502670288 -0.16078436374664307 0.2439894676208496
0.7882353067398071 -0.16078436374664307 0.06852483749389648
0.8039215803146362 -0.16078436374664307 0.06735372543334961
-0.4823529124259949 -0.17647063732147217 0.09319114685058594
-0.27843135595321655 -0.17647063732147217 0.36907243728637695
-0.26274508237838745 -0.17647063732147217 0.3815011978149414
-0.07450979948043823 -0.17647063732147217 -0.6951546669006348
0.06666672229766846 -0.17647063732147217 -0.38483762741088867
0.08235299587249756 -0.17647063732147217 -0.38627195358276367
0.12941181659698486 -0.17647063732147217 -0.8629207611083984
0.16078436374664307 -0.17647063732147217 -0.19078683853149414
0.17647063732147217 -0.17647063732147217 -0.19828319549560547
0.19215691089630127 -0.17647063732147217 -0.20346975326538086
0.20784318447113037 -0.17647063732147217 -0.21414852142333984
0.3960784673690796 -0.17647063732147217 -0.3996281623840332
0.4274510145187378 -0.17647063732147217 0.01820516586303711
0.5215686559677124 -0.17647063732147217 -0.2303452491760254
0.5686274766921997 -0.17647063732147217 0.2336435317993164
0.5843137502670288 -0.17647063732147217 0.2399148941040039
0.7882353067398071 -0.17647063732147217 0.07147073745727539
-0.4823529124259949 -0.19215691089630127 0.10126256942749023
-0.46666663885116577 -0.19215691089630127 0.11321210861206055
-0.29411762952804565 -0.19215691089630127 0.3538517951965332
-0.27843135595321655 -0.19215691089630127 0.3639202117919922
-0.07450979948043823 -0.19215691089630127 -0.6945157051086426
0.06666672229766846 -0.19215691089630127 -0.3808455467224121
0.08235299587249756 -0.19215691089630127 -0.38306617736816406
0.12941181659698486 -0.19215691089630127 -0.8471202850341797
0.20784318447113037 -0.19215691089630127 -0.21517562866210938
0.22352945804595947 -0.19215691089630127 -0.21988868713378906
0.23921573162078857 -0.19215691089630127 -0.22624492645263672
0.2549020051956177 -0.19215691089630127 -0.23265933990478516
0.2705882787704468 -0.19215691089630127 -0.24142074584960938
0.3960784673690796 -0.19215691089630127 -0.39058542251586914
0.4117647409439087 -0.19215691089630127 -0.39331531524658203
0.4274510145187378 -0.19215691089630127 0.019260883331298828
0.5215686559677124 -0.19215691089630127 -0.2387371063232422
0.5686274766921997 -0.19215691089630127 0.23610639572143555
0.7882353067398071 -0.19215691089630127 0.0716853141784668
-0.46666663885116577 -0.20784318447113037 0.12433815002441406
-0.45098036527633667 -0.20784318447113037 0.140716552734375
-0.32549017667770386 -0.20784318447113037 0.32252979278564453
-0.30980390310287476 -0.20784318447113037 0.3389744758605957
-0.29411762952804565 -0.20784318447113037 0.34618234634399414
-0.07450979948043823 -0.20784318447113037 -0.6911725997924805
0.06666672229766846 -0.20784318447113037 -0.38011646270751953
0.08235299587249756 -0.20784318447113037 -0.3801121711730957
0.12941181659698486 -0.20784318447113037 -0.8376221656799316
0.2705882787704468 -0.20784318447113037 -0.24361228942871094
0.2862745523452759 -0.20784318447113037 -0.24660301208496094
0.301960825920105 -0.20784318447113037 -0.25125598907470703
0.3176470994949341 -0.20784318447113037 -0.257479190826416
0.3333333730697632 -0.20784318447113037 -0.2664322853088379
0.3960784673690796 -0.20784318447113037 -0.37210941314697266
0.4117647409439087 -0.20784318447113037 0.013882637023925781
0.4274510145187378 -0.20784318447113037 0.012279510498046875
0.5058823823928833 -0.20784318447113037 -0.2519950866699219
0.5686274766921997 -0.20784318447113037 0.23410415649414062
0.7882353067398071 -0.20784318447113037 0.0714564323425293
-0.45098036527633667 -0.22352945804595947 0.14426565170288086
-0.43529409170150757 -0.22352945804595947 0.16997957229614258
-0.41960781812667847 -0.22352945804595947 0.1873931884765625
-0.40392154455184937 -0.22352945804595947 0.19971799850463867
-0.37254899740219116 -0.22352945804595947 0.2610049247741699
-0.35686272382736206 -0.22352945804595947 0.28832387924194336
-0.34117645025253296 -0.22352945804595947 0.30762720108032227
