ply
format ascii 1.0
element vertex 503
property float x
property float y
property float z
end_header
-0.5921568870544434 0.29411762952804565 0.21817636489868164
-0.5764706134796143 0.29411762952804565 0.23140954971313477
-0.5607843399047852 0.29411762952804565 0.11881256103515625
-0.545098066329956 0.29411762952804565 0.10568571090698242
-0.529411792755127 0.29411762952804565 0.1064748764038086
-0.5137255191802979 0.29411762952804565 0.10998868942260742
-0.498039186000824 0.29411762952804565 0.12194252014160156
-0.4823529124259949 0.29411762952804565 0.1398787498474121
-0.46666663885116577 0.29411762952804565 0.1582016944885254
-0.6705882549285889 0.27843135595321655 0.1368541717529297
-0.6549019813537598 0.27843135595321655 0.15850543975830078
-0.6392157077789307 0.27843135595321655 0.1747608184814453
-0.6235294342041016 0.27843135595321655 0.18830156326293945
-0.6078431606292725 0.27843135595321655 0.20132207870483398
-0.5921568870544434 0.27843135595321655 0.21497011184692383
-0.5764706134796143 0.27843135595321655 0.2321791648864746
-0.5607843399047852 0.27843135595321655 0.25379085540771484
-0.545098066329956 0.27843135595321655 0.2753615379333496
-0.529411792755127 0.27843135595321655 0.2890939712524414
-0.46666663885116577 0.27843135595321655 0.15784025192260742
-0.45098036527633667 0.27843135595321655 0.1809368133544922
-0.43529409170150757 0.27843135595321655 0.20098257064819336
-0.41960781812667847 0.27843135595321655 0.2125082015991211
-0.686274528503418 0.26274508237838745 0.12126779556274414
-0.6705882549285889 0.26274508237838745 0.13568401336669922
-0.6078431606292725 0.26274508237838745 0.0267791748046875
-0.5921568870544434 0.26274508237838745 0.03950023651123047
-0.529411792755127 0.26274508237838745 0.2879977226257324
-0.5137255191802979 0.26274508237838745 0.31360673904418945
-0.498039186000824 0.26274508237838745 0.3276333808898926
-0.41960781812667847 0.26274508237838745 0.22354984283447266
-0.40392154455184937 0.26274508237838745 0.24142885208129883
-0.7176470756530762 0.24705880880355835 0.07887649536132812
-0.7019608020782471 0.24705880880355835 0.0965871810913086
-0.6392157077789307 0.24705880880355835 -0.019588947296142578
-0.6235294342041016 0.24705880880355835 -0.0
-0.4823529124259949 0.24705880880355835 0.35218381881713867
-0.46666663885116577 0.24705880880355835 0.3590226173400879
-0.38823527097702026 0.24705880880355835 0.2603278160095215
-0.37254899740219116 0.24705880880355835 0.2684597969055176
-0.7333333492279053 0.23137253522872925 0.05857992172241211
-0.7176470756530762 0.23137253522872925 0.07025814056396484
-0.6549019813537598 0.23137253522872925 -0.037278175354003906
-0.6392157077789307 0.23137253522872925 -0.023269176483154297
-0.46666663885116577 0.23137253522872925 0.37204933166503906
-0.45098036527633667 0.23137253522872925 0.3842015266418457
-0.37254899740219116 0.23137253522872925 0.2767925262451172
-0.35686272382736206 0.23137253522872925 0.2856864929199219
-0.7490196228027344 0.21568626165390015 0.04009866714477539
-0.7333333492279053 0.21568626165390015 0.04863548278808594
-0.6705882549285889 0.21568626165390015 -0.0526585578918457
-0.6549019813537598 0.21568626165390015 -0.03940153121948242
-0.45098036527633667 0.21568626165390015 0.39179086685180664
-0.43529409170150757 0.21568626165390015 0.40293073654174805
-0.35686272382736206 0.21568626165390015 0.29431867599487305
-0.34117645025253296 0.21568626165390015 0.30280447006225586
-0.7647058963775635 0.19999998807907104 0.02391195297241211
-0.7490196228027344 0.19999998807907104 0.03267955780029297
-0.6705882549285889 0.19999998807907104 -0.05584573745727539
-0.43529409170150757 0.19999998807907104 0.41095876693725586
-0.41960781812667847 0.19999998807907104 0.4192681312561035
-0.34117645025253296 0.19999998807907104 0.31240320205688477
-0.32549017667770386 0.19999998807907104 0.3165731430053711
-0.7647058963775635 0.18431371450424194 0.018248558044433594
-0.686274528503418 0.18431371450424194 -0.07328653335571289
-0.41960781812667847 0.18431371450424194 0.4301443099975586
-0.40392154455184937 0.18431371450424194 0.4303164482116699
-0.32549017667770386 0.18431371450424194 0.32847118377685547
-0.7803921699523926 0.16862744092941284 0.004486083984375
-0.7019608020782471 0.16862744092941284 -0.09117889404296875
-0.686274528503418 0.16862744092941284 -0.08549785614013672
-0.40392154455184937 0.16862744092941284 0.44620800018310547
-0.30980390310287476 0.16862744092941284 0.34020328521728516
-0.7960784435272217 0.15294116735458374 -0.011867046356201172
-0.7803921699523926 0.15294116735458374 -0.004046440124511719
-0.7019608020782471 0.15294116735458374 -0.09782075881958008
-0.40392154455184937 0.15294116735458374 0.44979000091552734
-0.38823527097702026 0.15294116735458374 0.45679283142089844
-0.30980390310287476 0.15294116735458374 0.3458852767944336
-0.29411762952804565 0.15294116735458374 0.34686899185180664
-0.7960784435272217 0.13725489377975464 -0.015914440155029297
-0.7176470756530762 0.13725489377975464 -0.1118464469909668
-0.7019608020782471 0.13725489377975464 -0.1088871955871582
-0.38823527097702026 0.13725489377975464 0.4661397933959961
-0.37254899740219116 0.13725489377975464 0.4067397117614746
-0.29411762952804565 0.13725489377975464 0.35656166076660156
-0.8117647171020508 0.12156862020492554 -0.03146171569824219
-0.7960784435272217 0.12156862020492554 -0.023101329803466797
-0.7176470756530762 0.12156862020492554 -0.11800765991210938
-0.37254899740219116 0.12156862020492554 0.47739601135253906
-0.29411762952804565 0.12156862020492554 0.360659122467041
-0.27843135595321655 0.12156862020492554 0.3613123893737793
-0.8117647171020508 0.10588234663009644 -0.032137393951416016
-0.7176470756530762 0.10588234663009644 -0.12460708618164062
-0.37254899740219116 0.10588234663009644 0.48839712142944336
-0.27843135595321655 0.10588234663009644 0.36869144439697266
0.5058823823928833 0.10588234663009644 -0.8544259071350098
0.5215686559677124 0.10588234663009644 -0.8694310188293457
0.5372549295425415 0.10588234663009644 -0.8810319900512695
0.5529412031173706 0.10588234663009644 -0.893561840057373
0.5686274766921997 0.10588234663009644 -0.9121770858764648
0.5843137502670288 0.10588234663009644 -0.9234294891357422
0.6000000238418579 0.10588234663009644 -0.9174761772155762
-0.8117647171020508 0.09019607305526733 -0.03812408447265625
-0.7333333492279053 0.09019607305526733 -0.13129329681396484
-0.7176470756530762 0.09019607305526733 -0.13524675369262695
-0.37254899740219116 0.09019607305526733 0.4924588203430176
-0.35686272382736206 0.09019607305526733 0.49847888946533203
-0.27843135595321655 0.09019607305526733 0.37074708938598633
0.2705882787704468 0.09019607305526733 -0.6298608779907227
0.2862745523452759 0.09019607305526733 -0.6426711082458496
0.301960825920105 0.09019607305526733 -0.655703067779541
0.3176470994949341 0.09019607305526733 -0.6685900688171387
0.3333333730697632 0.09019607305526733 -0.6812868118286133
0.3490196466445923 0.09019607305526733 -0.695185661315918
0.3647059202194214 0.09019607305526733 -0.7090520858764648
0.3803921937942505 0.09019607305526733 -0.7222261428833008
0.3960784673690796 0.09019607305526733 -0.7364335060119629
0.4117647409439087 0.09019607305526733 -0.7506523132324219
0.4274510145187378 0.09019607305526733 -0.7638101577758789
0.4431372880935669 0.09019607305526733 -0.7757372856140137
0.458823561668396 0.09019607305526733 -0.7891364097595215
0.4745098352432251 0.09019607305526733 -0.8048787117004395
0.4901961088180542 0.09019607305526733 -0.8232941627502441
0.5058823823928833 0.09019607305526733 -0.8438558578491211
0.5215686559677124 0.09019607305526733 -0.8652801513671875
0.5372549295425415 0.09019607305526733 -0.8839678764343262
0.5529412031173706 0.09019607305526733 -0.910243034362793
0.5686274766921997 0.09019607305526733 -0.9542489051818848
0.615686297416687 0.09019607305526733 -0.9075794219970703
0.6313725709915161 0.09019607305526733 -0.8991217613220215
-0.8274509906768799 0.07450979948043823 -0.05187654495239258
-0.8117647171020508 0.07450979948043823 -0.044106483459472656
-0.7333333492279053 0.07450979948043823 -0.13524484634399414
-0.35686272382736206 0.07450979948043823 0.5090122222900391
-0.26274508237838745 0.07450979948043823 0.37217092514038086
0.050980448722839355 0.07450979948043823 -0.42865467071533203
0.06666672229766846 0.07450979948043823 -0.4395771026611328
0.08235299587249756 0.07450979948043823 -0.45122241973876953
0.09803926944732666 0.07450979948043823 -0.4641256332397461
0.11372554302215576 0.07450979948043823 -0.4783635139465332
0.12941181659698486 0.07450979948043823 -0.49247026443481445
0.14509809017181396 0.07450979948043823 -0.5073490142822266
0.16078436374664307 0.07450979948043823 -0.5224671363830566
0.17647063732147217 0.07450979948043823 -0.5372681617736816
0.19215691089630127 0.07450979948043823 -0.5507011413574219
0.20784318447113037 0.07450979948043823 -0.564661979675293
0.22352945804595947 0.07450979948043823 -0.5787944793701172
0.23921573162078857 0.07450979948043823 -0.5937538146972656
0.2549020051956177 0.07450979948043823 -0.6084718704223633
0.2705882787704468 0.07450979948043823 -0.6239752769470215
0.2862745523452759 0.07450979948043823 -0.6394400596618652
0.301960825920105 0.07450979948043823 -0.6549310684204102
0.5529412031173706 0.07450979948043823 -0.9621181488037109
0.6313725709915161 0.07450979948043823 -0.896672248840332
-0.8274509906768799 0.05882352590560913 -0.05195426940917969
-0.8117647171020508 0.05882352590560913 -0.053769588470458984
-0.7333333492279053 0.05882352590560913 -0.13945960998535156
-0.35686272382736206 0.05882352590560913 0.512331485748291
-0.26274508237838745 0.05882352590560913 0.3764762878417969
-0.16862744092941284 0.05882352590560913 -0.23260831832885742
-0.15294116735458374 0.05882352590560913 -0.2378249168395996
-0.13725489377975464 0.05882352590560913 -0.24858760833740234
-0.12156862020492554 0.05882352590560913 -0.2608609199523926
-0.10588234663009644 0.05882352590560913 -0.2762455940246582
-0.09019607305526733 0.05882352590560913 -0.29212427139282227
-0.07450979948043823 0.05882352590560913 -0.3069605827331543
-0.05882352590560913 0.05882352590560913 -0.32023143768310547
-0.04313725233078003 0.05882352590560913 -0.33473873138427734
-0.027450978755950928 0.05882352590560913 -0.34976959228515625
-0.011764705181121826 0.05882352590560913 -0.36385345458984375
0.003921627998352051 0.05882352590560913 -0.3770484924316406
0.019607901573181152 0.05882352590560913 -0.3918294906616211
0.035294175148010254 0.05882352590560913 -0.40752124786376953
0.050980448722839355 0.05882352590560913 -0.42318201065063477
0.06666672229766846 0.05882352590560913 -0.43839216232299805
0.08235299587249756 0.05882352590560913 -0.4546089172363281
0.5372549295425415 0.05882352590560913 -0.9696035385131836
0.5529412031173706 0.05882352590560913 -0.9700617790222168
0.6313725709915161 0.05882352590560913 -0.8931126594543457
0.6470588445663452 0.05882352590560913 -0.8902435302734375
-0.8274509906768799 0.04313725233078003 -0.05611467361450195
-0.7333333492279053 0.04313725233078003 -0.14291620254516602
-0.38823527097702026 0.04313725233078003 0.027499675750732422
-0.37254899740219116 0.04313725233078003 0.026313304901123047
-0.35686272382736206 0.04313725233078003 0.5164656639099121
-0.34117645025253296 0.04313725233078003 0.5160913467407227
-0.32549017667770386 0.04313725233078003 0.030797481536865234
-0.30980390310287476 0.04313725233078003 0.010581493377685547
-0.29411762952804565 0.04313725233078003 -0.007167339324951172
-0.27843135595321655 0.04313725233078003 -0.02333545684814453
-0.26274508237838745 0.04313725233078003 0.37663936614990234
-0.24705880880355835 0.04313725233078003 -0.09250545501708984
-0.23137253522872925 0.04313725233078003 -0.12420415878295898
-0.21568626165390015 0.04313725233078003 -0.15018892288208008
-0.19999998807907104 0.04313725233078003 -0.17329931259155273
-0.18431371450424194 0.04313725233078003 -0.19371938705444336
-0.16862744092941284 0.04313725233078003 -0.21524429321289062
-0.15294116735458374 0.04313725233078003 -0.2324690818786621
-0.13725489377975464 0.04313725233078003 -0.24993467330932617
0.5372549295425415 0.04313725233078003 -0.9749021530151367
0.6313725709915161 0.04313725233078003 -0.8941993713378906
0.6470588445663452 0.04313725233078003 -0.8908405303955078
-0.8274509906768799 0.027450978755950928 -0.05932807922363281
-0.7490196228027344 0.027450978755950928 -0.14986705780029297
-0.7333333492279053 0.027450978755950928 -0.14788579940795898
-0.5137255191802979 0.027450978755950928 0.11477041244506836
-0.498039186000824 0.027450978755950928 0.1409130096435547
-0.4823529124259949 0.027450978755950928 0.1568293571472168
-0.46666663885116577 0.027450978755950928 0.10175561904907227
-0.45098036527633667 0.027450978755950928 0.08744192123413086
-0.43529409170150757 0.027450978755950928 0.06932210922241211
-0.41960781812667847 0.027450978755950928 0.04795217514038086
-0.40392154455184937 0.027450978755950928 0.030704498291015625
-0.38823527097702026 0.027450978755950928 0.021799564361572266
-0.37254899740219116 0.027450978755950928 0.01939249038696289
-0.35686272382736206 0.027450978755950928 0.014383792877197266
-0.34117645025253296 0.027450978755950928 0.5207748413085938
-0.26274508237838745 0.027450978755950928 0.3785872459411621
-0.24705880880355835 0.027450978755950928 0.3785881996154785
0.5372549295425415 0.027450978755950928 -0.9767017364501953
0.5529412031173706 0.027450978755950928 -0.9754576683044434
0.6313725709915161 0.027450978755950928 -0.8960380554199219
0.6470588445663452 0.027450978755950928 -0.8927421569824219
-0.8274509906768799 0.011764705181121826 -0.060697078704833984
-0.7490196228027344 0.011764705181121826 -0.14951467514038086
-0.7333333492279053 0.011764705181121826 -0.15287017822265625
-0.529411792755127 0.011764705181121826 0.08536100387573242
-0.46666663885116577 0.011764705181121826 0.1810469627380371
-0.34117645025253296 0.011764705181121826 0.5192832946777344
-0.26274508237838745 0.011764705181121826 0.37787342071533203
-0.24705880880355835 0.011764705181121826 0.37539243698120117
0.5372549295425415 0.011764705181121826 -0.9760403633117676
0.5529412031173706 0.011764705181121826 -0.9736032485961914
0.6313725709915161 0.011764705181121826 -0.9036679267883301
0.6470588445663452 0.011764705181121826 -0.8997812271118164
-0.8274509906768799 -0.003921627998352051 -0.060436248779296875
-0.7490196228027344 -0.003921627998352051 -0.15000057220458984
-0.7333333492279053 -0.003921627998352051 -0.16228389739990234
-0.545098066329956 -0.003921627998352051 0.06793403625488281
-0.529411792755127 -0.003921627998352051 0.07035398483276367
-0.46666663885116577 -0.003921627998352051 0.18223333358764648
-0.45098036527633667 -0.003921627998352051 0.19003820419311523
-0.34117645025253296 -0.003921627998352051 0.5154824256896973
-0.24705880880355835 -0.003921627998352051 0.3799104690551758
0.5529412031173706 -0.003921627998352051 -0.9724621772766113
0.6313725709915161 -0.003921627998352051 -0.9150075912475586
-0.8274509906768799 -0.019607901573181152 -0.05963563919067383
-0.7490196228027344 -0.019607901573181152 -0.1498861312866211
-0.545098066329956 -0.019607901573181152 0.06706523895263672
-0.45098036527633667 -0.019607901573181152 0.19266510009765625
-0.34117645025253296 -0.019607901573181152 0.5161328315734863
-0.24705880880355835 -0.019607901573181152 0.3835468292236328
0.5686274766921997 -0.019607901573181152 -0.9335508346557617
0.5843137502670288 -0.019607901573181152 -0.9326987266540527
0.6000000238418579 -0.019607901573181152 -0.9357237815856934
0.615686297416687 -0.019607901573181152 -0.932919979095459
0.6313725709915161 -0.019607901573181152 -0.9290733337402344
-0.8274509906768799 -0.035294175148010254 -0.05890989303588867
-0.7490196228027344 -0.035294175148010254 -0.14936256408691406
-0.545098066329956 -0.035294175148010254 0.06567955017089844
-0.45098036527633667 -0.035294175148010254 0.19040775299072266
-0.34117645025253296 -0.035294175148010254 0.5171961784362793
-0.24705880880355835 -0.035294175148010254 0.38671064376831055
0.3803921937942505 -0.035294175148010254 -0.731938362121582
0.3960784673690796 -0.035294175148010254 -0.7452096939086914
0.4117647409439087 -0.035294175148010254 -0.7595663070678711
0.4274510145187378 -0.035294175148010254 -0.7732300758361816
0.4431372880935669 -0.035294175148010254 -0.7861490249633789
0.458823561668396 -0.035294175148010254 -0.8007969856262207
0.4745098352432251 -0.035294175148010254 -0.8166837692260742
0.4901961088180542 -0.035294175148010254 -0.833073616027832
0.5058823823928833 -0.035294175148010254 -0.8478364944458008
0.5215686559677124 -0.035294175148010254 -0.8647274971008301
0.5372549295425415 -0.035294175148010254 -0.8820128440856934
0.5529412031173706 -0.035294175148010254 -0.9004416465759277
0.5686274766921997 -0.035294175148010254 -0.9179811477661133
0.5843137502670288 -0.035294175148010254 -0.9283695220947266
0.6000000238418579 -0.035294175148010254 -0.9353165626525879
-0.8274509906768799 -0.050980448722839355 -0.057990074157714844
-0.7490196228027344 -0.050980448722839355 -0.14863204956054688
-0.7333333492279053 -0.050980448722839355 -0.1628589630126953
-0.545098066329956 -0.050980448722839355 0.06709623336791992
-0.45098036527633667 -0.050980448722839355 0.18618535995483398
-0.34117645025253296 -0.050980448722839355 0.5183491706848145
-0.24705880880355835 -0.050980448722839355 0.38749217987060547
0.14509809017181396 -0.050980448722839355 -0.5083222389221191
0.16078436374664307 -0.050980448722839355 -0.5207362174987793
0.17647063732147217 -0.050980448722839355 -0.5332374572753906
0.19215691089630127 -0.050980448722839355 -0.5463018417358398
0.20784318447113037 -0.050980448722839355 -0.5603275299072266
0.22352945804595947 -0.050980448722839355 -0.5754575729370117
0.23921573162078857 -0.050980448722839355 -0.5917105674743652
0.2549020051956177 -0.050980448722839355 -0.6089568138122559
0.2705882787704468 -0.050980448722839355 -0.6255784034729004
0.2862745523452759 -0.050980448722839355 -0.6401801109313965
0.301960825920105 -0.050980448722839355 -0.6536111831665039
0.3176470994949341 -0.050980448722839355 -0.6672577857971191
0.3333333730697632 -0.050980448722839355 -0.6820387840270996
0.3490196466445923 -0.050980448722839355 -0.6977124214172363
0.3647059202194214 -0.050980448722839355 -0.7147674560546875
0.3803921937942505 -0.050980448722839355 -0.7321853637695312
0.3960784673690796 -0.050980448722839355 -0.7473306655883789
0.4117647409439087 -0.050980448722839355 -0.7625813484191895
-0.8274509906768799 -0.06666672229766846 -0.05657672882080078
-0.7490196228027344 -0.06666672229766846 -0.14817142486572266
-0.7333333492279053 -0.06666672229766846 -0.1533222198486328
-0.545098066329956 -0.06666672229766846 0.07055950164794922
-0.45098036527633667 -0.06666672229766846 0.18156862258911133
-0.34117645025253296 -0.06666672229766846 0.5199089050292969
-0.24705880880355835 -0.06666672229766846 0.3861885070800781
-0.07450979948043823 -0.06666672229766846 -0.3120150566101074
-0.05882352590560913 -0.06666672229766846 -0.3236732482910156
-0.04313725233078003 -0.06666672229766846 -0.33632516860961914
-0.027450978755950928 -0.06666672229766846 -0.34995555877685547
-0.011764705181121826 -0.06666672229766846 -0.3647336959838867
0.003921627998352051 -0.06666672229766846 -0.37911128997802734
0.019607901573181152 -0.06666672229766846 -0.39324426651000977
0.035294175148010254 -0.06666672229766846 -0.4075174331665039
0.050980448722839355 -0.06666672229766846 -0.42168283462524414
0.06666672229766846 -0.06666672229766846 -0.4350094795227051
0.08235299587249756 -0.06666672229766846 -0.44728994369506836
0.09803926944732666 -0.06666672229766846 -0.4601578712463379
0.11372554302215576 -0.06666672229766846 -0.4740924835205078
0.12941181659698486 -0.06666672229766846 -0.4897036552429199
0.14509809017181396 -0.06666672229766846 -0.5055489540100098
0.16078436374664307 -0.06666672229766846 -0.5217571258544922
0.17647063732147217 -0.06666672229766846 -0.5366382598876953
-0.8274509906768799 -0.08235299587249756 -0.054187774658203125
-0.7490196228027344 -0.08235299587249756 -0.14914894104003906
-0.7333333492279053 -0.08235299587249756 -0.14795494079589844
-0.529411792755127 -0.08235299587249756 0.08220529556274414
-0.46666663885116577 -0.08235299587249756 0.16585683822631836
-0.45098036527633667 -0.08235299587249756 0.1686701774597168
-0.34117645025253296 -0.08235299587249756 0.5176520347595215
-0.30980390310287476 -0.08235299587249756 -0.0582890510559082
-0.29411762952804565 -0.08235299587249756 -0.08739423751831055
-0.27843135595321655 -0.08235299587249756 -0.10598945617675781
-0.26274508237838745 -0.08235299587249756 0.3773527145385742
-0.24705880880355835 -0.08235299587249756 0.3840198516845703
-0.23137253522872925 -0.08235299587249756 -0.15742921829223633
-0.21568626165390015 -0.08235299587249756 -0.1785569190979004
-0.19999998807907104 -0.08235299587249756 -0.19228219985961914
-0.18431371450424194 -0.08235299587249756 -0.2070164680480957
-0.16862744092941284 -0.08235299587249756 -0.2205352783203125
-0.15294116735458374 -0.08235299587249756 -0.23287105560302734
-0.13725489377975464 -0.08235299587249756 -0.24906015396118164
-0.12156862020492554 -0.08235299587249756 -0.2648186683654785
-0.10588234663009644 -0.08235299587249756 -0.2808871269226074
-0.09019607305526733 -0.08235299587249756 -0.29544782638549805
-0.07450979948043823 -0.08235299587249756 -0.31003427505493164
-0.05882352590560913 -0.08235299587249756 -0.3244810104370117
-0.04313725233078003 -0.08235299587249756 -0.3403620719909668
-0.8274509906768799 -0.09803926944732666 -0.050768375396728516
-0.7333333492279053 -0.09803926944732666 -0.14319133758544922
-0.529411792755127 -0.09803926944732666 0.0909271240234375
-0.5137255191802979 -0.09803926944732666 0.10519266128540039
-0.498039186000824 -0.09803926944732666 0.12147998809814453
-0.4823529124259949 -0.09803926944732666 0.14511919021606445
-0.46666663885116577 -0.09803926944732666 0.15448665618896484
-0.45098036527633667 -0.09803926944732666 0.060163021087646484
-0.43529409170150757 -0.09803926944732666 0.04611635208129883
-0.41960781812667847 -0.09803926944732666 0.032813072204589844
-0.40392154455184937 -0.09803926944732666 0.02082967758178711
-0.38823527097702026 -0.09803926944732666 0.01219034194946289
-0.37254899740219116 -0.09803926944732666 0.0056858062744140625
-0.35686272382736206 -0.09803926944732666 0.0034041404724121094
-0.34117645025253296 -0.09803926944732666 0.5100536346435547
-0.32549017667770386 -0.09803926944732666 0.13449525833129883
-0.30980390310287476 -0.09803926944732666 0.013453006744384766
-0.29411762952804565 -0.09803926944732666 -0.04237174987792969
-0.27843135595321655 -0.09803926944732666 -0.07680416107177734
-0.26274508237838745 -0.09803926944732666 0.3787193298339844
-0.24705880880355835 -0.09803926944732666 0.3804135322570801
-0.8274509906768799 -0.11372554302215576 -0.04652070999145508
-0.7333333492279053 -0.11372554302215576 -0.1390552520751953
-0.498039186000824 -0.11372554302215576 0.12190723419189453
-0.4823529124259949 -0.11372554302215576 0.1184377670288086
-0.34117645025253296 -0.11372554302215576 0.5032138824462891
-0.26274508237838745 -0.11372554302215576 0.37995100021362305
-0.24705880880355835 -0.11372554302215576 0.37665367126464844
-0.8274509906768799 -0.12941181659698486 -0.04360818862915039
-0.8117647171020508 -0.12941181659698486 -0.04257345199584961
-0.7333333492279053 -0.12941181659698486 -0.1347513198852539
-0.34117645025253296 -0.12941181659698486 0.4987020492553711
-0.26274508237838745 -0.12941181659698486 0.3787236213684082
-0.24705880880355835 -0.12941181659698486 0.371340274810791
-0.8117647171020508 -0.14509809017181396 -0.03579425811767578
-0.7333333492279053 -0.14509809017181396 -0.12950706481933594
-0.7176470756530762 -0.14509809017181396 -0.13111448287963867
-0.34117645025253296 -0.14509809017181396 0.49425172805786133
-0.26274508237838745 -0.14509809017181396 0.37467002868652344
-0.8117647171020508 -0.16078436374664307 -0.030883312225341797
-0.7176470756530762 -0.16078436374664307 -0.1204075813293457
-0.35686272382736206 -0.16078436374664307 0.48949146270751953
-0.34117645025253296 -0.16078436374664307 0.4901885986328125
-0.26274508237838745 -0.16078436374664307 0.37099409103393555
-0.8117647171020508 -0.17647063732147217 -0.025836944580078125
-0.7960784435272217 -0.17647063732147217 -0.029350757598876953
-0.7176470756530762 -0.17647063732147217 -0.11594820022583008
-0.35686272382736206 -0.17647063732147217 0.48847341537475586
-0.27843135595321655 -0.17647063732147217 0.362154483795166
-0.26274508237838745 -0.17647063732147217 0.36553096771240234
-0.7960784435272217 -0.19215691089630127 -0.01798105239868164
-0.7176470756530762 -0.19215691089630127 -0.11378717422485352
-0.7019608020782471 -0.19215691089630127 -0.10923910140991211
-0.35686272382736206 -0.19215691089630127 0.48372936248779297
-0.27843135595321655 -0.19215691089630127 0.36150455474853516
-0.7960784435272217 -0.20784318447113037 -0.010053634643554688
-0.7019608020782471 -0.20784318447113037 -0.10310173034667969
-0.37254899740219116 -0.20784318447113037 0.47134923934936523
-0.35686272382736206 -0.20784318447113037 0.4755730628967285
-0.27843135595321655 -0.20784318447113037 0.3573274612426758
-0.7960784435272217 -0.22352945804595947 -0.004405021667480469
-0.7803921699523926 -0.22352945804595947 0.001178741455078125
-0.7019608020782471 -0.22352945804595947 -0.10118436813354492
-0.686274528503418 -0.22352945804595947 -0.09481191635131836
-0.37254899740219116 -0.22352945804595947 0.46781492233276367
-0.29411762952804565 -0.22352945804595947 0.34639692306518555
-0.27843135595321655 -0.22352945804595947 0.3479738235473633
-0.7803921699523926 -0.23921573162078857 0.011981964111328125
-0.686274528503418 -0.23921573162078857 -0.0854806900024414
-0.38823527097702026 -0.23921573162078857 0.4521021842956543
-0.37254899740219116 -0.23921573162078857 0.4595794677734375
-0.29411762952804565 -0.23921573162078857 0.340512752532959
-0.7647058963775635 -0.2549020051956177 0.0263519287109375
-0.686274528503418 -0.2549020051956177 -0.08545255661010742
-0.6705882549285889 -0.2549020051956177 -0.07110786437988281
-0.38823527097702026 -0.2549020051956177 0.44901275634765625
-0.30980390310287476 -0.2549020051956177 0.3267993927001953
-0.29411762952804565 -0.2549020051956177 0.3300337791442871
-0.7647058963775635 -0.2705882787704468 0.03631925582885742
-0.7490196228027344 -0.2705882787704468 0.04180002212524414
-0.6705882549285889 -0.2705882787704468 -0.06301450729370117
-0.6549019813537598 -0.2705882787704468 -0.05574512481689453
-0.40392154455184937 -0.2705882787704468 0.43253421783447266
-0.38823527097702026 -0.2705882787704468 0.4389805793762207
-0.32549017667770386 -0.2705882787704468 0.3116016387939453
-0.30980390310287476 -0.2705882787704468 0.32059431076049805
-0.7490196228027344 -0.2862745523452759 0.0544438362121582
-0.7333333492279053 -0.2862745523452759 0.05700540542602539
-0.6549019813537598 -0.2862745523452759 -0.044281005859375
-0.6392157077789307 -0.2862745523452759 -0.03690338134765625
-0.41960781812667847 -0.2862745523452759 0.4132661819458008
-0.40392154455184937 -0.2862745523452759 0.42696523666381836
-0.32549017667770386 -0.2862745523452759 0.30701208114624023
-0.7333333492279053 -0.301960825920105 0.07239818572998047
-0.7176470756530762 -0.301960825920105 0.07629632949829102
-0.6392157077789307 -0.301960825920105 -0.02498483657836914
-0.6235294342041016 -0.301960825920105 -0.01762247085571289
-0.43529409170150757 -0.301960825920105 0.39653921127319336
-0.41960781812667847 -0.301960825920105 0.4120144844055176
-0.34117645025253296 -0.301960825920105 0.29102468490600586
-0.7176470756530762 -0.3176470994949341 0.09100484848022461
-0.7019608020782471 -0.3176470994949341 0.0996847152709961
-0.6235294342041016 -0.3176470994949341 -0.007460594177246094
-0.6078431606292725 -0.3176470994949341 0.00342559814453125
-0.45098036527633667 -0.3176470994949341 0.3845205307006836
-0.43529409170150757 -0.3176470994949341 0.39783477783203125
-0.37254899740219116 -0.3176470994949341 0.25966453552246094
-0.35686272382736206 -0.3176470994949341 0.2745685577392578
-0.7019608020782471 -0.3333333730697632 0.11134719848632812
-0.686274528503418 -0.3333333730697632 0.12558937072753906
-0.6078431606292725 -0.3333333730697632 0.012513160705566406
-0.5921568870544434 -0.3333333730697632 0.02909994125366211
-0.46666663885116577 -0.3333333730697632 0.3704090118408203
-0.45098036527633667 -0.3333333730697632 0.3814854621887207
-0.38823527097702026 -0.3333333730697632 0.24334049224853516
-0.37254899740219116 -0.3333333730697632 0.2573695182800293
-0.686274528503418 -0.3490196466445923 0.12995100021362305
-0.6705882549285889 -0.3490196466445923 0.15027189254760742
-0.6549019813537598 -0.3490196466445923 0.16020870208740234
-0.5764706134796143 -0.3490196466445923 0.05360555648803711
-0.5607843399047852 -0.3490196466445923 0.0616612434387207
-0.545098066329956 -0.3490196466445923 0.06519269943237305
-0.498039186000824 -0.3490196466445923 0.33571720123291016
-0.4823529124259949 -0.3490196466445923 0.35408639907836914
-0.46666663885116577 -0.3490196466445923 0.3612704277038574
-0.41960781812667847 -0.3490196466445923 0.20813703536987305
-0.40392154455184937 -0.3490196466445923 0.22623491287231445
-0.38823527097702026 -0.3490196466445923 0.23751354217529297
-0.6549019813537598 -0.3647059202194214 0.1690969467163086
-0.6392157077789307 -0.3647059202194214 0.18777132034301758
-0.6235294342041016 -0.3647059202194214 0.2036271095275879
-0.6078431606292725 -0.3647059202194214 0.21721744537353516
-0.5921568870544434 -0.3647059202194214 0.22684335708618164
-0.5764706134796143 -0.3647059202194214 0.18374156951904297
-0.5607843399047852 -0.3647059202194214 0.09830141067504883
-0.545098066329956 -0.3647059202194214 0.2704734802246094
-0.529411792755127 -0.3647059202194214 0.3037233352661133
-0.5137255191802979 -0.3647059202194214 0.3231830596923828
-0.498039186000824 -0.3647059202194214 0.33469104766845703
-0.4823529124259949 -0.3647059202194214 0.16719818115234375
-0.46666663885116577 -0.3647059202194214 0.1728839874267578
-0.45098036527633667 -0.3647059202194214 0.18264484405517578
-0.43529409170150757 -0.3647059202194214 0.1928396224975586
-0.41960781812667847 -0.3647059202194214 0.20496845245361328
-0.6078431606292725 -0.3803921937942505 0.2225961685180664
-0.5921568870544434 -0.3803921937942505 0.2415781021118164
-0.5764706134796143 -0.3803921937942505 0.2601313591003418
-0.5607843399047852 -0.3803921937942505 0.27631187438964844
-0.545098066329956 -0.3803921937942505 0.2903122901916504
-0.529411792755127 -0.3803921937942505 0.29854679107666016
