ply
format ascii 1.0
element vertex 788
property float x
property float y
property float z
end_header
-0.16862744092941284 0.7176470756530762 0.18136119842529297
-0.15294116735458374 0.7176470756530762 0.17971515655517578
-0.10588234663009644 0.7176470756530762 0.301088809967041
-0.09019607305526733 0.7176470756530762 0.317166805267334
-0.07450979948043823 0.7176470756530762 0.3305501937866211
-0.05882352590560913 0.7176470756530762 0.3405909538269043
-0.04313725233078003 0.7176470756530762 0.3488149642944336
-0.027450978755950928 0.7176470756530762 0.35488414764404297
-0.011764705181121826 0.7176470756530762 0.3593015670776367
0.003921627998352051 0.7176470756530762 0.36156177520751953
0.019607901573181152 0.7176470756530762 0.36205577850341797
0.035294175148010254 0.7176470756530762 0.36075544357299805
0.050980448722839355 0.7176470756530762 0.3578915596008301
0.06666672229766846 0.7176470756530762 0.35350513458251953
0.08235299587249756 0.7176470756530762 0.34710216522216797
0.09803926944732666 0.7176470756530762 0.3376913070678711
0.11372554302215576 0.7176470756530762 0.32480621337890625
0.16078436374664307 0.7176470756530762 0.18239498138427734
0.17647063732147217 0.7176470756530762 0.18857145309448242
-0.16862744092941284 0.7019608020782471 0.17513370513916016
-0.15294116735458374 0.7019608020782471 0.17142295837402344
0.16078436374664307 0.7019608020782471 0.18569421768188477
0.17647063732147217 0.7019608020782471 0.18681049346923828
-0.16862744092941284 0.686274528503418 0.16972923278808594
-0.15294116735458374 0.686274528503418 0.16700029373168945
0.16078436374664307 0.686274528503418 0.18423986434936523
0.17647063732147217 0.686274528503418 0.1845684051513672
-0.16862744092941284 0.6705882549285889 0.1666707992553711
-0.15294116735458374 0.6705882549285889 0.1632852554321289
0.16078436374664307 0.6705882549285889 0.18163251876831055
0.17647063732147217 0.6705882549285889 0.18255281448364258
-0.16862744092941284 0.6549019813537598 0.16262149810791016
-0.15294116735458374 0.6549019813537598 0.15958499908447266
0.16078436374664307 0.6549019813537598 0.17685461044311523
0.17647063732147217 0.6549019813537598 0.17894458770751953
-0.16862744092941284 0.6392157077789307 0.15798568725585938
-0.15294116735458374 0.6392157077789307 0.15563488006591797
0.16078436374664307 0.6392157077789307 0.17247581481933594
0.17647063732147217 0.6392157077789307 0.17432689666748047
-0.16862744092941284 0.6235294342041016 0.1528477668762207
-0.15294116735458374 0.6235294342041016 0.15151309967041016
0.16078436374664307 0.6235294342041016 0.16792917251586914
0.17647063732147217 0.6235294342041016 0.16920852661132812
-0.16862744092941284 0.6078431606292725 0.1490182876586914
-0.15294116735458374 0.6078431606292725 0.14785432815551758
0.16078436374664307 0.6078431606292725 0.16394853591918945
0.17647063732147217 0.6078431606292725 0.16472530364990234
-0.16862744092941284 0.5921568870544434 0.14603519439697266
-0.15294116735458374 0.5921568870544434 0.14465904235839844
0.16078436374664307 0.5921568870544434 0.16130495071411133
0.17647063732147217 0.5921568870544434 0.16155672073364258
-0.16862744092941284 0.5764706134796143 0.14317035675048828
-0.15294116735458374 0.5764706134796143 0.14223670959472656
0.16078436374664307 0.5764706134796143 0.1590585708618164
0.17647063732147217 0.5764706134796143 0.15953731536865234
-0.16862744092941284 0.5607843399047852 0.13944149017333984
-0.15294116735458374 0.5607843399047852 0.13914251327514648
0.16078436374664307 0.5607843399047852 0.1560063362121582
0.17647063732147217 0.5607843399047852 0.1575479507446289
-0.16862744092941284 0.545098066329956 0.135833740234375
-0.15294116735458374 0.545098066329956 0.13533973693847656
0.16078436374664307 0.545098066329956 0.1524219512939453
0.17647063732147217 0.545098066329956 0.15427350997924805
-0.16862744092941284 0.529411792755127 0.13326263427734375
-0.15294116735458374 0.529411792755127 0.1322026252746582
0.16078436374664307 0.529411792755127 0.14810943603515625
0.17647063732147217 0.529411792755127 0.1497964859008789
-0.16862744092941284 0.5137255191802979 0.1325244903564453
-0.15294116735458374 0.5137255191802979 0.13047122955322266
0.16078436374664307 0.5137255191802979 0.1452021598815918
0.17647063732147217 0.5137255191802979 0.1457505226135254
-0.16862744092941284 0.498039186000824 0.13108348846435547
-0.15294116735458374 0.498039186000824 0.12687349319458008
0.16078436374664307 0.498039186000824 0.14131546020507812
0.17647063732147217 0.498039186000824 0.14142847061157227
-0.16862744092941284 0.4823529124259949 0.12824010848999023
-0.15294116735458374 0.4823529124259949 0.12241506576538086
0.16078436374664307 0.4823529124259949 0.1366710662841797
0.17647063732147217 0.4823529124259949 0.13616275787353516
-0.16862744092941284 0.46666663885116577 0.12254858016967773
-0.15294116735458374 0.46666663885116577 0.1158447265625
0.16078436374664307 0.46666663885116577 0.1300945281982422
0.17647063732147217 0.46666663885116577 0.12862348556518555
-0.16862744092941284 0.45098036527633667 0.11549520492553711
-0.15294116735458374 0.45098036527633667 0.10497426986694336
0.16078436374664307 0.45098036527633667 0.12479877471923828
0.17647063732147217 0.45098036527633667 0.12255859375
-0.16862744092941284 0.43529409170150757 0.10914897918701172
-0.15294116735458374 0.43529409170150757 0.09826087951660156
0.16078436374664307 0.43529409170150757 0.11955976486206055
0.17647063732147217 0.43529409170150757 0.11685466766357422
-0.16862744092941284 0.41960781812667847 0.1026763916015625
-0.15294116735458374 0.41960781812667847 0.09600305557250977
0.16078436374664307 0.41960781812667847 0.11475419998168945
0.17647063732147217 0.41960781812667847 0.11140108108520508
-0.16862744092941284 0.40392154455184937 0.09763240814208984
-0.15294116735458374 0.40392154455184937 0.09352302551269531
-0.011764705181121826 0.40392154455184937 -0.3634505271911621
0.019607901573181152 0.40392154455184937 -0.3633265495300293
0.16078436374664307 0.40392154455184937 0.10851812362670898
0.17647063732147217 0.40392154455184937 0.1037440299987793
-0.24705880880355835 0.38823527097702026 -0.31722593307495117
-0.23137253522872925 0.38823527097702026 -0.3206973075866699
-0.21568626165390015 0.38823527097702026 -0.32410478591918945
-0.19999998807907104 0.38823527097702026 -0.32570791244506836
-0.18431371450424194 0.38823527097702026 -0.3292837142944336
-0.16862744092941284 0.38823527097702026 0.09254693984985352
-0.15294116735458374 0.38823527097702026 0.08632755279541016
-0.13725489377975464 0.38823527097702026 -0.3250136375427246
-0.12156862020492554 0.38823527097702026 -0.32322263717651367
-0.10588234663009644 0.38823527097702026 -0.32868289947509766
-0.09019607305526733 0.38823527097702026 -0.33646297454833984
-0.07450979948043823 0.38823527097702026 -0.34435081481933594
-0.05882352590560913 0.38823527097702026 -0.35233592987060547
-0.04313725233078003 0.38823527097702026 -0.35723209381103516
-0.027450978755950928 0.38823527097702026 -0.3602771759033203
-0.011764705181121826 0.38823527097702026 -0.3631777763366699
0.003921627998352051 0.38823527097702026 -0.3641700744628906
0.019607901573181152 0.38823527097702026 -0.3633103370666504
0.035294175148010254 0.38823527097702026 -0.3603248596191406
0.050980448722839355 0.38823527097702026 -0.3586540222167969
0.06666672229766846 0.38823527097702026 -0.3572521209716797
0.08235299587249756 0.38823527097702026 -0.3580136299133301
0.09803926944732666 0.38823527097702026 -0.3559403419494629
0.11372554302215576 0.38823527097702026 -0.3498106002807617
0.12941181659698486 0.38823527097702026 -0.3432435989379883
0.14509809017181396 0.38823527097702026 -0.33936357498168945
0.16078436374664307 0.38823527097702026 0.10042142868041992
0.17647063732147217 0.38823527097702026 -0.18751764297485352
0.19215691089630127 0.38823527097702026 -0.31592845916748047
0.20784318447113037 0.38823527097702026 -0.31191110610961914
0.22352945804595947 0.38823527097702026 -0.30908679962158203
0.23921573162078857 0.38823527097702026 -0.3097848892211914
0.2549020051956177 0.38823527097702026 -0.31154394149780273
-0.34117645025253296 0.37254899740219116 -0.25505781173706055
-0.32549017667770386 0.37254899740219116 -0.2649531364440918
-0.30980390310287476 0.37254899740219116 -0.2759275436401367
-0.29411762952804565 0.37254899740219116 -0.2865571975708008
-0.27843135595321655 0.37254899740219116 -0.2969393730163574
-0.26274508237838745 0.37254899740219116 -0.3082451820373535
-0.24705880880355835 0.37254899740219116 -0.31935930252075195
-0.23137253522872925 0.37254899740219116 -0.3261580467224121
-0.16862744092941284 0.37254899740219116 0.0883641242980957
-0.15294116735458374 0.37254899740219116 0.07999086380004883
0.16078436374664307 0.37254899740219116 0.09367704391479492
0.17647063732147217 0.37254899740219116 -0.15860271453857422
0.23921573162078857 0.37254899740219116 -0.3031902313232422
0.2549020051956177 0.37254899740219116 -0.2974405288696289
0.2705882787704468 0.37254899740219116 -0.2901644706726074
0.2862745523452759 0.37254899740219116 -0.2831568717956543
0.301960825920105 0.37254899740219116 -0.27443790435791016
0.3176470994949341 0.37254899740219116 -0.2646493911743164
0.3333333730697632 0.37254899740219116 -0.2551712989807129
0.3490196466445923 0.37254899740219116 -0.24990129470825195
-0.38823527097702026 0.35686272382736206 -0.19423246383666992
-0.37254899740219116 0.35686272382736206 -0.21083450317382812
-0.35686272382736206 0.35686272382736206 -0.2304377555847168
-0.34117645025253296 0.35686272382736206 -0.2483820915222168
-0.32549017667770386 0.35686272382736206 -0.2685260772705078
-0.16862744092941284 0.35686272382736206 0.08531379699707031
-0.15294116735458374 0.35686272382736206 0.07734394073486328
0.16078436374664307 0.35686272382736206 0.09211540222167969
0.17647063732147217 0.35686272382736206 0.08989715576171875
0.3333333730697632 0.35686272382736206 -0.25655221939086914
0.3490196466445923 0.35686272382736206 -0.23726749420166016
0.3647059202194214 0.35686272382736206 -0.22251176834106445
0.3803921937942505 0.35686272382736206 -0.20791912078857422
0.3960784673690796 0.35686272382736206 -0.1960759162902832
-0.41960781812667847 0.34117645025253296 -0.1319870948791504
-0.40392154455184937 0.34117645025253296 -0.15679693222045898
-0.38823527097702026 0.34117645025253296 -0.19081878662109375
-0.16862744092941284 0.34117645025253296 0.0799703598022461
-0.15294116735458374 0.34117645025253296 0.05517148971557617
-0.07450979948043823 0.34117645025253296 -0.05213212966918945
-0.05882352590560913 0.34117645025253296 -0.05896949768066406
-0.04313725233078003 0.34117645025253296 -0.06469869613647461
-0.027450978755950928 0.34117645025253296 -0.0680389404296875
-0.011764705181121826 0.34117645025253296 -0.0707101821899414
0.003921627998352051 0.34117645025253296 -0.07268810272216797
0.019607901573181152 0.34117645025253296 -0.07390069961547852
0.035294175148010254 0.34117645025253296 -0.07276105880737305
0.050980448722839355 0.34117645025253296 -0.06988000869750977
0.06666672229766846 0.34117645025253296 -0.06547212600708008
0.08235299587249756 0.34117645025253296 -0.06070518493652344
0.16078436374664307 0.34117645025253296 0.09081649780273438
0.17647063732147217 0.34117645025253296 0.09562540054321289
0.3960784673690796 0.34117645025253296 -0.1891775131225586
0.4117647409439087 0.34117645025253296 -0.1652083396911621
0.4274510145187378 0.34117645025253296 -0.14537715911865234
-0.45098036527633667 0.32549017667770386 -0.06447029113769531
-0.43529409170150757 0.32549017667770386 -0.0822443962097168
-0.16862744092941284 0.32549017667770386 0.07514715194702148
-0.15294116735458374 0.32549017667770386 0.06400251388549805
-0.13725489377975464 0.32549017667770386 0.017891407012939453
-0.12156862020492554 0.32549017667770386 -0.0008559226989746094
-0.10588234663009644 0.32549017667770386 -0.020294189453125
-0.09019607305526733 0.32549017667770386 -0.035529136657714844
-0.07450979948043823 0.32549017667770386 -0.047100067138671875
-0.05882352590560913 0.32549017667770386 -0.0576634407043457
-0.04313725233078003 0.32549017667770386 -0.0653529167175293
-0.027450978755950928 0.32549017667770386 -0.07060956954956055
0.035294175148010254 0.32549017667770386 -0.0752711296081543
0.050980448722839355 0.32549017667770386 -0.07055902481079102
0.06666672229766846 0.32549017667770386 -0.06527900695800781
0.08235299587249756 0.32549017667770386 -0.05661725997924805
0.09803926944732666 0.32549017667770386 -0.044053077697753906
0.11372554302215576 0.32549017667770386 -0.02904987335205078
0.12941181659698486 0.32549017667770386 -0.01300048828125
0.14509809017181396 0.32549017667770386 0.0008563995361328125
0.16078436374664307 0.32549017667770386 0.10277271270751953
0.17647063732147217 0.32549017667770386 0.10030698776245117
0.4431372880935669 0.32549017667770386 -0.0986790657043457
0.458823561668396 0.32549017667770386 -0.0881795883178711
-0.45098036527633667 0.30980390310287476 -0.001987457275390625
-0.16862744092941284 0.30980390310287476 0.07859468460083008
-0.15294116735458374 0.30980390310287476 0.0911250114440918
-0.13725489377975464 0.30980390310287476 0.026198387145996094
0.14509809017181396 0.30980390310287476 0.015820980072021484
0.16078436374664307 0.30980390310287476 0.12334966659545898
0.17647063732147217 0.30980390310287476 0.09440469741821289
0.458823561668396 0.30980390310287476 -0.024290084838867188
-0.45098036527633667 0.29411762952804565 0.07729530334472656
-0.15294116735458374 0.29411762952804565 0.13484573364257812
-0.13725489377975464 0.29411762952804565 0.1539602279663086
0.14509809017181396 0.29411762952804565 0.16210460662841797
0.16078436374664307 0.29411762952804565 0.13300180435180664
0.458823561668396 0.29411762952804565 0.04986906051635742
-0.45098036527633667 0.27843135595321655 0.0938715934753418
-0.43529409170150757 0.27843135595321655 0.14913129806518555
-0.41960781812667847 0.27843135595321655 0.16286563873291016
-0.13725489377975464 0.27843135595321655 0.18008756637573242
-0.12156862020492554 0.27843135595321655 0.2024374008178711
-0.10588234663009644 0.27843135595321655 0.21861696243286133
-0.09019607305526733 0.27843135595321655 0.2320241928100586
-0.07450979948043823 0.27843135595321655 0.24109697341918945
-0.05882352590560913 0.27843135595321655 0.24808692932128906
-0.04313725233078003 0.27843135595321655 0.2519998550415039
-0.027450978755950928 0.27843135595321655 0.2551994323730469
-0.011764705181121826 0.27843135595321655 0.2587451934814453
0.003921627998352051 0.27843135595321655 0.26106834411621094
0.019607901573181152 0.27843135595321655 0.2602682113647461
0.035294175148010254 0.27843135595321655 0.25687742233276367
0.050980448722839355 0.27843135595321655 0.2525491714477539
0.06666672229766846 0.27843135595321655 0.2467355728149414
0.08235299587249756 0.27843135595321655 0.23650312423706055
0.09803926944732666 0.27843135595321655 0.2235274314880371
0.11372554302215576 0.27843135595321655 0.20933961868286133
0.12941181659698486 0.27843135595321655 0.1895008087158203
0.14509809017181396 0.27843135595321655 0.13254404067993164
0.4274510145187378 0.27843135595321655 0.11804866790771484
0.4431372880935669 0.27843135595321655 0.10580587387084961
0.458823561668396 0.27843135595321655 0.06696367263793945
-0.45098036527633667 0.26274508237838745 0.0048809051513671875
-0.41960781812667847 0.26274508237838745 0.1913013458251953
-0.40392154455184937 0.26274508237838745 0.22055673599243164
-0.38823527097702026 0.26274508237838745 0.24209928512573242
-0.04313725233078003 0.26274508237838745 0.2586941719055176
-0.027450978755950928 0.26274508237838745 0.26205873489379883
-0.011764705181121826 0.26274508237838745 0.2650580406188965
0.003921627998352051 0.26274508237838745 0.2653236389160156
0.019607901573181152 0.26274508237838745 0.26225757598876953
0.035294175148010254 0.26274508237838745 0.25821638107299805
0.050980448722839355 0.26274508237838745 0.25168514251708984
0.3960784673690796 0.26274508237838745 0.18391036987304688
0.4117647409439087 0.26274508237838745 0.16472148895263672
0.4274510145187378 0.26274508237838745 0.1410512924194336
0.458823561668396 0.26274508237838745 0.02656269073486328
-0.45098036527633667 0.24705880880355835 0.013562679290771484
-0.38823527097702026 0.24705880880355835 0.24136590957641602
-0.37254899740219116 0.24705880880355835 0.2694664001464844
-0.35686272382736206 0.24705880880355835 0.28701210021972656
-0.34117645025253296 0.24705880880355835 0.3014554977416992
-0.32549017667770386 0.24705880880355835 0.31232738494873047
-0.30980390310287476 0.24705880880355835 0.3179645538330078
0.3176470994949341 0.24705880880355835 0.28267765045166016
0.3333333730697632 0.24705880880355835 0.2704277038574219
0.3490196466445923 0.24705880880355835 0.25536203384399414
0.3647059202194214 0.24705880880355835 0.23680686950683594
0.3803921937942505 0.24705880880355835 0.2151484489440918
0.3960784673690796 0.24705880880355835 0.1848773956298828
0.458823561668396 0.24705880880355835 0.028419971466064453
-0.45098036527633667 0.23137253522872925 0.01135110855102539
-0.32549017667770386 0.23137253522872925 0.31009721755981445
-0.30980390310287476 0.23137253522872925 0.32593345642089844
-0.29411762952804565 0.23137253522872925 0.33763790130615234
-0.27843135595321655 0.23137253522872925 0.3478217124938965
-0.26274508237838745 0.23137253522872925 0.3574075698852539
-0.24705880880355835 0.23137253522872925 0.3660907745361328
-0.23137253522872925 0.23137253522872925 0.37488698959350586
-0.21568626165390015 0.23137253522872925 0.3815913200378418
-0.19999998807907104 0.23137253522872925 0.38481569290161133
0.20784318447113037 0.23137253522872925 0.36802148818969727
0.22352945804595947 0.23137253522872925 0.3599667549133301
0.23921573162078857 0.23137253522872925 0.35051679611206055
0.2549020051956177 0.23137253522872925 0.3412480354309082
0.2705882787704468 0.23137253522872925 0.3301987648010254
0.2862745523452759 0.23137253522872925 0.3178248405456543
0.301960825920105 0.23137253522872925 0.3039736747741699
0.3176470994949341 0.23137253522872925 0.28826284408569336
0.3333333730697632 0.23137253522872925 0.26546669006347656
0.458823561668396 0.23137253522872925 0.023879051208496094
-0.45098036527633667 0.21568626165390015 0.007337093353271484
-0.23137253522872925 0.21568626165390015 0.31805992126464844
-0.21568626165390015 0.21568626165390015 0.37226152420043945
-0.19999998807907104 0.21568626165390015 0.3828883171081543
-0.18431371450424194 0.21568626165390015 0.389981746673584
-0.16862744092941284 0.21568626165390015 0.3956489562988281
-0.15294116735458374 0.21568626165390015 0.40298938751220703
-0.13725489377975464 0.21568626165390015 0.4045290946960449
-0.12156862020492554 0.21568626165390015 0.40759754180908203
-0.10588234663009644 0.21568626165390015 0.41176939010620117
-0.09019607305526733 0.21568626165390015 0.41500091552734375
-0.07450979948043823 0.21568626165390015 0.4187135696411133
-0.05882352590560913 0.21568626165390015 0.42139625549316406
-0.04313725233078003 0.21568626165390015 0.42096376419067383
-0.027450978755950928 0.21568626165390015 0.4192924499511719
-0.011764705181121826 0.21568626165390015 0.41751718521118164
0.003921627998352051 0.21568626165390015 0.4171586036682129
0.019607901573181152 0.21568626165390015 0.41678857803344727
0.035294175148010254 0.21568626165390015 0.41718053817749023
0.050980448722839355 0.21568626165390015 0.41759538650512695
0.06666672229766846 0.21568626165390015 0.41667795181274414
0.08235299587249756 0.21568626165390015 0.4153881072998047
0.09803926944732666 0.21568626165390015 0.4129462242126465
0.11372554302215576 0.21568626165390015 0.4099545478820801
0.12941181659698486 0.21568626165390015 0.4063906669616699
0.14509809017181396 0.21568626165390015 0.40219879150390625
0.16078436374664307 0.21568626165390015 0.3957986831665039
0.17647063732147217 0.21568626165390015 0.3863062858581543
0.19215691089630127 0.21568626165390015 0.3751802444458008
0.20784318447113037 0.21568626165390015 0.36264753341674805
0.22352945804595947 0.21568626165390015 0.34645938873291016
0.458823561668396 0.21568626165390015 0.017911434173583984
-0.45098036527633667 0.19999998807907104 0.0028066635131835938
0.458823561668396 0.19999998807907104 0.013577461242675781
-0.45098036527633667 0.18431371450424194 -0.0019440650939941406
0.458823561668396 0.18431371450424194 0.009661674499511719
-0.45098036527633667 0.16862744092941284 -0.005944728851318359
-0.21568626165390015 0.16862744092941284 -0.4172787666320801
-0.19999998807907104 0.16862744092941284 -0.40312719345092773
-0.18431371450424194 0.16862744092941284 -0.39845895767211914
-0.16862744092941284 0.16862744092941284 -0.39607763290405273
-0.15294116735458374 0.16862744092941284 -0.39557361602783203
-0.13725489377975464 0.16862744092941284 -0.3938593864440918
-0.12156862020492554 0.16862744092941284 -0.38956451416015625
-0.10588234663009644 0.16862744092941284 -0.3838515281677246
-0.09019607305526733 0.16862744092941284 -0.3813490867614746
-0.07450979948043823 0.16862744092941284 -0.38189268112182617
-0.05882352590560913 0.16862744092941284 -0.38698911666870117
-0.04313725233078003 0.16862744092941284 -0.3904843330383301
-0.027450978755950928 0.16862744092941284 -0.39475250244140625
-0.011764705181121826 0.16862744092941284 -0.3999795913696289
0.003921627998352051 0.16862744092941284 -0.4029998779296875
0.019607901573181152 0.16862744092941284 -0.4066438674926758
0.035294175148010254 0.16862744092941284 -0.4089803695678711
0.050980448722839355 0.16862744092941284 -0.41431188583374023
0.06666672229766846 0.16862744092941284 -0.4196338653564453
0.08235299587249756 0.16862744092941284 -0.42285966873168945
0.09803926944732666 0.16862744092941284 -0.4218883514404297
0.11372554302215576 0.16862744092941284 -0.42168378829956055
0.12941181659698486 0.16862744092941284 -0.4186673164367676
0.14509809017181396 0.16862744092941284 -0.414792537689209
0.16078436374664307 0.16862744092941284 -0.4092378616333008
0.17647063732147217 0.16862744092941284 -0.4042658805847168
0.19215691089630127 0.16862744092941284 -0.3995814323425293
0.20784318447113037 0.16862744092941284 -0.3956727981567383
0.22352945804595947 0.16862744092941284 -0.39194345474243164
0.458823561668396 0.16862744092941284 0.006778717041015625
-0.45098036527633667 0.15294116735458374 -0.008864402770996094
-0.21568626165390015 0.15294116735458374 -0.41587257385253906
-0.19999998807907104 0.15294116735458374 -0.40219831466674805
-0.18431371450424194 0.15294116735458374 -0.3963508605957031
-0.16862744092941284 0.15294116735458374 -0.3909592628479004
-0.15294116735458374 0.15294116735458374 -0.3856644630432129
-0.13725489377975464 0.15294116735458374 -0.37940549850463867
-0.12156862020492554 0.15294116735458374 -0.3717994689941406
-0.10588234663009644 0.15294116735458374 -0.3624706268310547
-0.09019607305526733 0.15294116735458374 -0.35332632064819336
0.19215691089630127 0.15294116735458374 -0.4030890464782715
0.20784318447113037 0.15294116735458374 -0.3979010581970215
0.22352945804595947 0.15294116735458374 -0.39215850830078125
0.23921573162078857 0.15294116735458374 -0.38531494140625
0.2549020051956177 0.15294116735458374 -0.37657737731933594
0.2705882787704468 0.15294116735458374 -0.3666820526123047
0.2862745523452759 0.15294116735458374 -0.3561573028564453
0.301960825920105 0.15294116735458374 -0.34552717208862305
0.3176470994949341 0.15294116735458374 -0.33541297912597656
0.458823561668396 0.15294116735458374 0.0034122467041015625
-0.45098036527633667 0.13725489377975464 -0.011784076690673828
-0.21568626165390015 0.13725489377975464 -0.4268374443054199
-0.10588234663009644 0.13725489377975464 -0.37587690353393555
-0.09019607305526733 0.13725489377975464 -0.36919069290161133
-0.07450979948043823 0.13725489377975464 -0.3607292175292969
-0.05882352590560913 0.13725489377975464 -0.3438858985900879
-0.04313725233078003 0.13725489377975464 -0.33350658416748047
-0.027450978755950928 0.13725489377975464 -0.32430553436279297
-0.011764705181121826 0.13725489377975464 -0.31482458114624023
0.003921627998352051 0.13725489377975464 -0.30710601806640625
0.019607901573181152 0.13725489377975464 -0.3012409210205078
0.035294175148010254 0.13725489377975464 -0.29540348052978516
0.3176470994949341 0.13725489377975464 -0.32384729385375977
0.3333333730697632 0.13725489377975464 -0.3054027557373047
0.3490196466445923 0.13725489377975464 -0.2873406410217285
0.3647059202194214 0.13725489377975464 -0.27126073837280273
0.3803921937942505 0.13725489377975464 -0.2577519416809082
0.458823561668396 0.13725489377975464 -0.0011119842529296875
-0.45098036527633667 0.12156862020492554 -0.013849258422851562
-0.21568626165390015 0.12156862020492554 -0.4269251823425293
0.019607901573181152 0.12156862020492554 -0.31744384765625
0.035294175148010254 0.12156862020492554 -0.3080263137817383
0.050980448722839355 0.12156862020492554 -0.2986478805541992
0.06666672229766846 0.12156862020492554 -0.2883458137512207
0.08235299587249756 0.12156862020492554 -0.27569150924682617
0.09803926944732666 0.12156862020492554 -0.26329851150512695
0.11372554302215576 0.12156862020492554 -0.25148534774780273
0.12941181659698486 0.12156862020492554 -0.24198579788208008
0.14509809017181396 0.12156862020492554 -0.23255062103271484
0.16078436374664307 0.12156862020492554 -0.2238140106201172
0.17647063732147217 0.12156862020492554 -0.21442604064941406
0.3803921937942505 0.12156862020492554 -0.24117517471313477
0.3960784673690796 0.12156862020492554 -0.22065162658691406
0.4117647409439087 0.12156862020492554 -0.1968851089477539
0.4274510145187378 0.12156862020492554 -0.16461896896362305
0.458823561668396 0.12156862020492554 -0.007668972015380859
-0.45098036527633667 0.10588234663009644 -0.013528823852539062
-0.21568626165390015 0.10588234663009644 -0.42223501205444336
0.14509809017181396 0.10588234663009644 -0.2397289276123047
0.16078436374664307 0.10588234663009644 -0.22635650634765625
0.17647063732147217 0.10588234663009644 -0.21291017532348633
0.19215691089630127 0.10588234663009644 -0.20003938674926758
0.20784318447113037 0.10588234663009644 -0.18712377548217773
0.22352945804595947 0.10588234663009644 -0.17518138885498047
0.23921573162078857 0.10588234663009644 -0.16364574432373047
0.2549020051956177 0.10588234663009644 -0.15068674087524414
0.2705882787704468 0.10588234663009644 -0.13887548446655273
0.2862745523452759 0.10588234663009644 -0.12804794311523438
0.301960825920105 0.10588234663009644 -0.12125730514526367
0.4274510145187378 0.10588234663009644 -0.14930152893066406
0.4431372880935669 0.10588234663009644 -0.10668182373046875
0.458823561668396 0.10588234663009644 -0.01281118392944336
-0.45098036527633667 0.09019607305526733 -0.008645057678222656
-0.43529409170150757 0.09019607305526733 -0.030143260955810547
-0.21568626165390015 0.09019607305526733 -0.42241525650024414
0.2862745523452759 0.09019607305526733 -0.12727737426757812
0.301960825920105 0.09019607305526733 -0.1120462417602539
0.3176470994949341 0.09019607305526733 -0.1006612777709961
0.3333333730697632 0.09019607305526733 -0.09026384353637695
0.3490196466445923 0.09019607305526733 -0.08263778686523438
0.3647059202194214 0.09019607305526733 -0.07521343231201172
0.3803921937942505 0.09019607305526733 -0.06780815124511719
0.3960784673690796 0.09019607305526733 -0.05892181396484375
0.4117647409439087 0.09019607305526733 -0.05252218246459961
0.4274510145187378 0.09019607305526733 -0.049443721771240234
0.458823561668396 0.09019607305526733 -0.015491962432861328
-0.45098036527633667 0.07450979948043823 0.01095438003540039
-0.43529409170150757 0.07450979948043823 0.03713846206665039
-0.41960781812667847 0.07450979948043823 0.026364803314208984
-0.40392154455184937 0.07450979948043823 0.03767585754394531
-0.38823527097702026 0.07450979948043823 0.043994903564453125
-0.37254899740219116 0.07450979948043823 0.04747819900512695
-0.35686272382736206 0.07450979948043823 0.050705909729003906
-0.34117645025253296 0.07450979948043823 0.05475473403930664
-0.32549017667770386 0.07450979948043823 0.060482025146484375
-0.30980390310287476 0.07450979948043823 0.06693458557128906
-0.21568626165390015 0.07450979948043823 -0.4163823127746582
0.4117647409439087 0.07450979948043823 -0.0574798583984375
0.4274510145187378 0.07450979948043823 -0.04357337951660156
0.4431372880935669 0.07450979948043823 -0.032671451568603516
0.458823561668396 0.07450979948043823 -0.012480735778808594
-0.45098036527633667 0.05882352590560913 -0.031513214111328125
-0.43529409170150757 0.05882352590560913 0.0742497444152832
-0.32549017667770386 0.05882352590560913 0.06471109390258789
-0.30980390310287476 0.05882352590560913 0.07514095306396484
-0.29411762952804565 0.05882352590560913 0.08540105819702148
-0.27843135595321655 0.05882352590560913 0.09459304809570312
-0.26274508237838745 0.05882352590560913 0.10145807266235352
-0.24705880880355835 0.05882352590560913 0.10618829727172852
-0.23137253522872925 0.05882352590560913 0.10891914367675781
-0.21568626165390015 0.05882352590560913 0.10900354385375977
-0.19999998807907104 0.05882352590560913 0.1023702621459961
-0.18431371450424194 0.05882352590560913 0.10230255126953125
0.458823561668396 0.05882352590560913 -0.014145374298095703
-0.45098036527633667 0.04313725233078003 -0.03763866424560547
-0.41960781812667847 0.04313725233078003 0.12373161315917969
-0.40392154455184937 0.04313725233078003 0.15891408920288086
-0.38823527097702026 0.04313725233078003 0.17664432525634766
-0.21568626165390015 0.04313725233078003 -0.32968664169311523
-0.19999998807907104 0.04313725233078003 0.10534429550170898
-0.18431371450424194 0.04313725233078003 0.11280393600463867
-0.16862744092941284 0.04313725233078003 0.12389326095581055
-0.15294116735458374 0.04313725233078003 0.13594961166381836
-0.13725489377975464 0.04313725233078003 0.1443500518798828
-0.12156862020492554 0.04313725233078003 0.15249395370483398
-0.10588234663009644 0.04313725233078003 0.16294336318969727
-0.09019607305526733 0.04313725233078003 0.17443513870239258
-0.07450979948043823 0.04313725233078003 0.18401575088500977
-0.05882352590560913 0.04313725233078003 0.1922769546508789
0.458823561668396 0.04313725233078003 -0.019014835357666016
-0.45098036527633667 0.027450978755950928 -0.04093790054321289
-0.38823527097702026 0.027450978755950928 0.194732666015625
-0.37254899740219116 0.027450978755950928 0.22191429138183594
-0.35686272382736206 0.027450978755950928 0.24334383010864258
-0.34117645025253296 0.027450978755950928 0.2572970390319824
-0.21568626165390015 0.027450978755950928 -0.4046363830566406
-0.07450979948043823 0.027450978755950928 0.18743896484375
-0.05882352590560913 0.027450978755950928 0.19762277603149414
-0.04313725233078003 0.027450978755950928 0.20879077911376953
-0.027450978755950928 0.027450978755950928 0.21940183639526367
-0.011764705181121826 0.027450978755950928 0.22765541076660156
0.003921627998352051 0.027450978755950928 0.23472881317138672
0.019607901573181152 0.027450978755950928 0.24152421951293945
0.035294175148010254 0.027450978755950928 0.24818897247314453
0.050980448722839355 0.027450978755950928 0.2545175552368164
0.06666672229766846 0.027450978755950928 0.26124143600463867
0.458823561668396 0.027450978755950928 -0.022623062133789062
-0.45098036527633667 0.011764705181121826 -0.04537010192871094
-0.34117645025253296 0.011764705181121826 0.26543140411376953
-0.32549017667770386 0.011764705181121826 0.28423452377319336
-0.30980390310287476 0.011764705181121826 0.29988718032836914
-0.29411762952804565 0.011764705181121826 0.3123154640197754
-0.27843135595321655 0.011764705181121826 0.32465124130249023
-0.26274508237838745 0.011764705181121826 0.3340163230895996
-0.24705880880355835 0.011764705181121826 0.3396162986755371
-0.23137253522872925 0.011764705181121826 0.0772848129272461
-0.21568626165390015 0.011764705181121826 -0.4321737289428711
0.050980448722839355 0.011764705181121826 0.25396299362182617
0.06666672229766846 0.011764705181121826 0.26480770111083984
0.08235299587249756 0.011764705181121826 0.27484703063964844
0.09803926944732666 0.011764705181121826 0.28472900390625
0.11372554302215576 0.011764705181121826 0.29443359375
0.12941181659698486 0.011764705181121826 0.30282020568847656
0.14509809017181396 0.011764705181121826 0.3145318031311035
0.16078436374664307 0.011764705181121826 0.328427791595459
0.17647063732147217 0.011764705181121826 0.34288644790649414
0.19215691089630127 0.011764705181121826 0.35402536392211914
0.458823561668396 0.011764705181121826 -0.025525569915771484
-0.45098036527633667 -0.003921627998352051 -0.049367427825927734
-0.24705880880355835 -0.003921627998352051 0.35042572021484375
-0.23137253522872925 -0.003921627998352051 0.3639817237854004
-0.21568626165390015 -0.003921627998352051 0.37980127334594727
-0.19999998807907104 -0.003921627998352051 0.390228271484375
-0.18431371450424194 -0.003921627998352051 0.4014015197753906
-0.16862744092941284 -0.003921627998352051 0.41025495529174805
-0.15294116735458374 -0.003921627998352051 0.41652870178222656
-0.13725489377975464 -0.003921627998352051 0.42126035690307617
-0.12156862020492554 -0.003921627998352051 0.4246039390563965
-0.10588234663009644 -0.003921627998352051 0.4255838394165039
-0.09019607305526733 -0.003921627998352051 0.42723894119262695
-0.07450979948043823 -0.003921627998352051 0.42904043197631836
-0.05882352590560913 -0.003921627998352051 0.4302558898925781
-0.04313725233078003 -0.003921627998352051 0.4316558837890625
-0.027450978755950928 -0.003921627998352051 0.43238162994384766
-0.011764705181121826 -0.003921627998352051 0.4324054718017578
0.003921627998352051 -0.003921627998352051 0.43060970306396484
0.019607901573181152 -0.003921627998352051 0.43026208877563477
0.035294175148010254 -0.003921627998352051 0.42923498153686523
0.050980448722839355 -0.003921627998352051 0.42766571044921875
0.06666672229766846 -0.003921627998352051 0.42641210556030273
0.08235299587249756 -0.003921627998352051 0.4260826110839844
0.09803926944732666 -0.003921627998352051 0.4244041442871094
0.11372554302215576 -0.003921627998352051 0.4221949577331543
0.12941181659698486 -0.003921627998352051 0.41831445693969727
0.14509809017181396 -0.003921627998352051 0.4146575927734375
0.16078436374664307 -0.003921627998352051 0.41137266159057617
0.17647063732147217 -0.003921627998352051 0.4079575538635254
0.19215691089630127 -0.003921627998352051 0.40453672409057617
0.20784318447113037 -0.003921627998352051 0.40007448196411133
0.22352945804595947 -0.003921627998352051 0.38240766525268555
0.458823561668396 -0.003921627998352051 -0.028810977935791016
-0.45098036527633667 -0.019607901573181152 -0.05312538146972656
-0.21568626165390015 -0.019607901573181152 -0.4699740409851074
-0.05882352590560913 -0.019607901573181152 0.4260139465332031
-0.04313725233078003 -0.019607901573181152 0.42798519134521484
-0.027450978755950928 -0.019607901573181152 0.4301590919494629
-0.011764705181121826 -0.019607901573181152 0.4311814308166504
0.003921627998352051 -0.019607901573181152 0.4310469627380371
0.019607901573181152 -0.019607901573181152 0.4302682876586914
0.035294175148010254 -0.019607901573181152 0.42850732803344727
0.050980448722839355 -0.019607901573181152 0.4255847930908203
0.06666672229766846 -0.019607901573181152 0.4210662841796875
0.22352945804595947 -0.019607901573181152 0.3880496025085449
0.458823561668396 -0.019607901573181152 -0.032596588134765625
-0.45098036527633667 -0.035294175148010254 -0.05729055404663086
-0.21568626165390015 -0.035294175148010254 -0.47328853607177734
0.22352945804595947 -0.035294175148010254 0.37894201278686523
0.458823561668396 -0.035294175148010254 -0.03613471984863281
-0.45098036527633667 -0.050980448722839355 -0.06219053268432617
-0.21568626165390015 -0.050980448722839355 -0.48239850997924805
0.22352945804595947 -0.050980448722839355 0.367581844329834
0.458823561668396 -0.050980448722839355 -0.03881549835205078
-0.45098036527633667 -0.06666672229766846 -0.06680822372436523
-0.21568626165390015 -0.06666672229766846 -0.48901844024658203
0.22352945804595947 -0.06666672229766846 0.35696935653686523
0.458823561668396 -0.06666672229766846 -0.0414729118347168
-0.45098036527633667 -0.08235299587249756 -0.06979751586914062
-0.21568626165390015 -0.08235299587249756 -0.4969964027404785
0.22352945804595947 -0.08235299587249756 0.3472614288330078
0.458823561668396 -0.08235299587249756 -0.044623374938964844
-0.45098036527633667 -0.09803926944732666 -0.07273292541503906
-0.21568626165390015 -0.09803926944732666 -0.5031232833862305
0.22352945804595947 -0.09803926944732666 0.33876848220825195
0.458823561668396 -0.09803926944732666 -0.04831552505493164
-0.45098036527633667 -0.11372554302215576 -0.07654953002929688
-0.21568626165390015 -0.11372554302215576 -0.5102124214172363
0.08235299587249756 -0.11372554302215576 -0.30887413024902344
0.09803926944732666 -0.11372554302215576 -0.30565309524536133
0.11372554302215576 -0.11372554302215576 -0.30391979217529297
0.12941181659698486 -0.11372554302215576 -0.3013129234313965
0.14509809017181396 -0.11372554302215576 -0.29987335205078125
0.22352945804595947 -0.11372554302215576 0.3301820755004883
0.458823561668396 -0.11372554302215576 -0.052002906799316406
-0.45098036527633667 -0.12941181659698486 -0.08049821853637695
-0.21568626165390015 -0.12941181659698486 -0.5184946060180664
0.019607901573181152 -0.12941181659698486 -0.3274688720703125
0.035294175148010254 -0.12941181659698486 -0.27315759658813477
0.050980448722839355 -0.12941181659698486 -0.2844371795654297
0.06666672229766846 -0.12941181659698486 -0.2964930534362793
0.08235299587249756 -0.12941181659698486 -0.3027791976928711
0.12941181659698486 -0.12941181659698486 -0.29705190658569336
0.14509809017181396 -0.12941181659698486 -0.2897963523864746
0.16078436374664307 -0.12941181659698486 -0.28498268127441406
0.17647063732147217 -0.12941181659698486 -0.28054189682006836
0.22352945804595947 -0.12941181659698486 0.3208765983581543
0.458823561668396 -0.12941181659698486 -0.05459451675415039
-0.45098036527633667 -0.14509809017181396 -0.08491897583007812
-0.21568626165390015 -0.14509809017181396 -0.5284628868103027
-0.027450978755950928 -0.14509809017181396 -0.24932193756103516
-0.011764705181121826 -0.14509809017181396 -0.21261835098266602
0.003921627998352051 -0.14509809017181396 -0.22408723831176758
0.019607901573181152 -0.14509809017181396 -0.2408924102783203
0.035294175148010254 -0.14509809017181396 -0.2624044418334961
0.17647063732147217 -0.14509809017181396 -0.2792801856994629
0.19215691089630127 -0.14509809017181396 -0.26418447494506836
0.20784318447113037 -0.14509809017181396 -0.2563204765319824
0.22352945804595947 -0.14509809017181396 0.31195592880249023
0.458823561668396 -0.14509809017181396 -0.056311607360839844
-0.45098036527633667 -0.16078436374664307 -0.08884096145629883
-0.21568626165390015 -0.16078436374664307 -0.5411348342895508
-0.07450979948043823 -0.16078436374664307 -0.1286449432373047
-0.05882352590560913 -0.16078436374664307 -0.14176034927368164
-0.04313725233078003 -0.16078436374664307 -0.15793514251708984
-0.027450978755950928 -0.16078436374664307 -0.18086957931518555
0.003921627998352051 -0.16078436374664307 -0.40883636474609375
0.019607901573181152 -0.16078436374664307 -0.3972506523132324
0.20784318447113037 -0.16078436374664307 -0.22922706604003906
0.22352945804595947 -0.16078436374664307 0.30113840103149414
0.458823561668396 -0.16078436374664307 -0.05809307098388672
-0.45098036527633667 -0.17647063732147217 -0.09237480163574219
-0.21568626165390015 -0.17647063732147217 -0.5529770851135254
-0.12156862020492554 -0.17647063732147217 -0.0564732551574707
-0.10588234663009644 -0.17647063732147217 -0.07656526565551758
-0.09019607305526733 -0.17647063732147217 -0.09280586242675781
-0.07450979948043823 -0.17647063732147217 -0.11135578155517578
-0.011764705181121826 -0.17647063732147217 -0.42831993103027344
0.003921627998352051 -0.17647063732147217 -0.41892099380493164
0.22352945804595947 -0.17647063732147217 0.2932314872741699
0.23921573162078857 -0.17647063732147217 -0.220794677734375
0.458823561668396 -0.17647063732147217 -0.06082963943481445
-0.45098036527633667 -0.19215691089630127 -0.09515619277954102
-0.21568626165390015 -0.19215691089630127 -0.5613021850585938
-0.16862744092941284 -0.19215691089630127 0.1283092498779297
-0.15294116735458374 -0.19215691089630127 0.13827848434448242
-0.13725489377975464 -0.19215691089630127 0.1446084976196289
-0.12156862020492554 -0.19215691089630127 0.14849615097045898
-0.10588234663009644 -0.19215691089630127 0.15073823928833008
-0.09019607305526733 -0.19215691089630127 -0.09626913070678711
-0.011764705181121826 -0.19215691089630127 -0.43285131454467773
0.22352945804595947 -0.19215691089630127 0.2881436347961426
0.23921573162078857 -0.19215691089630127 -0.2079305648803711
0.458823561668396 -0.19215691089630127 -0.06354141235351562
-0.45098036527633667 -0.20784318447113037 -0.09790515899658203
-0.21568626165390015 -0.20784318447113037 -0.5716962814331055
-0.19999998807907104 -0.20784318447113037 0.12289714813232422
-0.18431371450424194 -0.20784318447113037 0.1286625862121582
-0.16862744092941284 -0.20784318447113037 0.13036823272705078
-0.10588234663009644 -0.20784318447113037 0.14648914337158203
-0.09019607305526733 -0.20784318447113037 0.1590285301208496
-0.07450979948043823 -0.20784318447113037 0.1692061424255371
-0.05882352590560913 -0.20784318447113037 0.1749739646911621
-0.027450978755950928 -0.20784318447113037 -0.44164609909057617
-0.011764705181121826 -0.20784318447113037 -0.438382625579834
0.22352945804595947 -0.20784318447113037 0.28830718994140625
0.23921573162078857 -0.20784318447113037 -0.2138519287109375
0.2549020051956177 -0.20784318447113037 -0.21161794662475586
0.458823561668396 -0.20784318447113037 -0.06608724594116211
-0.45098036527633667 -0.22352945804595947 -0.10026216506958008
-0.21568626165390015 -0.22352945804595947 0.12081336975097656
-0.19999998807907104 -0.22352945804595947 0.11997556686401367
-0.05882352590560913 -0.22352945804595947 0.18347597122192383
-0.04313725233078003 -0.22352945804595947 0.19381141662597656
-0.027450978755950928 -0.22352945804595947 -0.4513106346130371
0.22352945804595947 -0.22352945804595947 0.28993701934814453
0.2549020051956177 -0.22352945804595947 -0.21282052993774414
0.458823561668396 -0.22352945804595947 -0.06811809539794922
-0.45098036527633667 -0.23921573162078857 -0.10352945327758789
-0.23137253522872925 -0.23921573162078857 0.10968971252441406
-0.21568626165390015 -0.23921573162078857 -0.5780558586120605
-0.027450978755950928 -0.23921573162078857 0.20652008056640625
0.22352945804595947 -0.23921573162078857 0.2930173873901367
0.2705882787704468 -0.23921573162078857 -0.22172069549560547
0.458823561668396 -0.23921573162078857 -0.06967926025390625
-0.45098036527633667 -0.2549020051956177 -0.10752153396606445
-0.24705880880355835 -0.2549020051956177 0.09674549102783203
-0.23137253522872925 -0.2549020051956177 0.09654426574707031
-0.21568626165390015 -0.2549020051956177 -0.582918643951416
-0.027450978755950928 -0.2549020051956177 -0.46370792388916016
-0.011764705181121826 -0.2549020051956177 0.21535778045654297
0.22352945804595947 -0.2549020051956177 0.2927665710449219
0.2705882787704468 -0.2549020051956177 -0.22409725189208984
0.458823561668396 -0.2549020051956177 -0.07096672058105469
-0.45098036527633667 -0.2705882787704468 -0.11203956604003906
-0.26274508237838745 -0.2705882787704468 0.0756998062133789
-0.24705880880355835 -0.2705882787704468 0.09039640426635742
-0.21568626165390015 -0.2705882787704468 -0.5826687812805176
-0.04313725233078003 -0.2705882787704468 -0.45978260040283203
-0.027450978755950928 -0.2705882787704468 -0.4578285217285156
0.003921627998352051 -0.2705882787704468 0.2236495018005371
0.22352945804595947 -0.2705882787704468 0.29210567474365234
0.2705882787704468 -0.2705882787704468 -0.2268991470336914
0.458823561668396 -0.2705882787704468 -0.0730743408203125
-0.45098036527633667 -0.2862745523452759 -0.11560630798339844
-0.26274508237838745 -0.2862745523452759 0.07975101470947266
-0.21568626165390015 -0.2862745523452759 -0.5806365013122559
-0.04313725233078003 -0.2862745523452759 -0.4602193832397461
-0.027450978755950928 -0.2862745523452759 -0.45635557174682617
0.003921627998352051 -0.2862745523452759 0.22408676147460938
0.019607901573181152 -0.2862745523452759 0.22553110122680664
0.22352945804595947 -0.2862745523452759 0.29078149795532227
0.2705882787704468 -0.2862745523452759 -0.2307724952697754
0.2862745523452759 -0.2862745523452759 -0.23601341247558594
0.458823561668396 -0.2862745523452759 -0.07549095153808594
-0.45098036527633667 -0.301960825920105 -0.11843490600585938
-0.26274508237838745 -0.301960825920105 0.07522869110107422
-0.21568626165390015 -0.301960825920105 -0.5771570205688477
-0.027450978755950928 -0.301960825920105 -0.4554142951965332
0.019607901573181152 -0.301960825920105 0.22875308990478516
0.22352945804595947 -0.301960825920105 0.28972387313842773
0.2705882787704468 -0.301960825920105 -0.23660850524902344
0.2862745523452759 -0.301960825920105 -0.23888111114501953
0.458823561668396 -0.301960825920105 -0.07753419876098633
-0.45098036527633667 -0.3176470994949341 -0.12064266204833984
-0.27843135595321655 -0.3176470994949341 0.06418704986572266
-0.26274508237838745 -0.3176470994949341 0.07037353515625
-0.21568626165390015 -0.3176470994949341 -0.5736684799194336
-0.027450978755950928 -0.3176470994949341 -0.45026397705078125
0.019607901573181152 -0.3176470994949341 0.22901201248168945
0.035294175148010254 -0.3176470994949341 0.22703790664672852
0.22352945804595947 -0.3176470994949341 0.2872610092163086
0.2862745523452759 -0.3176470994949341 -0.24234724044799805
0.458823561668396 -0.3176470994949341 -0.07896614074707031
-0.45098036527633667 -0.3333333730697632 -0.12290239334106445
-0.27843135595321655 -0.3333333730697632 0.06309795379638672
-0.26274508237838745 -0.3333333730697632 0.060144901275634766
-0.21568626165390015 -0.3333333730697632 -0.5718178749084473
-0.027450978755950928 -0.3333333730697632 -0.4446587562561035
0.035294175148010254 -0.3333333730697632 0.22933721542358398
0.22352945804595947 -0.3333333730697632 0.2830696105957031
0.2862745523452759 -0.3333333730697632 -0.24593162536621094
0.458823561668396 -0.3333333730697632 -0.08063459396362305
-0.45098036527633667 -0.3490196466445923 -0.12511014938354492
-0.27843135595321655 -0.3490196466445923 0.0592188835144043
-0.21568626165390015 -0.3490196466445923 -0.5700087547302246
-0.027450978755950928 -0.3490196466445923 -0.4427504539489746
0.035294175148010254 -0.3490196466445923 0.22751760482788086
0.22352945804595947 -0.3490196466445923 0.27789974212646484
0.2705882787704468 -0.3490196466445923 -0.2500882148742676
0.2862745523452759 -0.3490196466445923 -0.2504854202270508
0.458823561668396 -0.3490196466445923 -0.08263826370239258
-0.45098036527633667 -0.3647059202194214 -0.1278824806213379
-0.27843135595321655 -0.3647059202194214 0.05428314208984375
-0.21568626165390015 -0.3647059202194214 -0.5703096389770508
-0.027450978755950928 -0.3647059202194214 -0.45125341415405273
-0.011764705181121826 -0.3647059202194214 -0.4313216209411621
0.035294175148010254 -0.3647059202194214 0.22764158248901367
0.22352945804595947 -0.3647059202194214 0.2739696502685547
0.2705882787704468 -0.3647059202194214 -0.2530326843261719
0.2862745523452759 -0.3647059202194214 -0.2583045959472656
0.458823561668396 -0.3647059202194214 -0.08510541915893555
-0.45098036527633667 -0.3803921937942505 -0.1309518814086914
-0.27843135595321655 -0.3803921937942505 0.049727439880371094
-0.26274508237838745 -0.3803921937942505 0.04138517379760742
-0.21568626165390015 -0.3803921937942505 -0.5705232620239258
-0.011764705181121826 -0.3803921937942505 -0.4321608543395996
0.035294175148010254 -0.3803921937942505 0.22468137741088867
0.050980448722839355 -0.3803921937942505 0.2205801010131836
0.22352945804595947 -0.3803921937942505 0.27021074295043945
0.2705882787704468 -0.3803921937942505 -0.25832605361938477
0.458823561668396 -0.3803921937942505 -0.08736896514892578
