ply
format ascii 1.0
element vertex 796
property float x
property float y
property float z
end_header
-0.545098066329956 0.32549017667770386 0.2328205108642578
-0.46666663885116577 0.32549017667770386 0.46183061599731445
-0.45098036527633667 0.32549017667770386 0.454434871673584
-0.37254899740219116 0.32549017667770386 0.6899623870849609
-0.35686272382736206 0.32549017667770386 0.694091796875
-0.30980390310287476 0.32549017667770386 0.2613811492919922
0.019607901573181152 0.32549017667770386 0.6958279609680176
0.035294175148010254 0.32549017667770386 0.6916117668151855
0.2549020051956177 0.32549017667770386 -0.5340604782104492
0.2705882787704468 0.32549017667770386 -0.5254578590393066
0.3960784673690796 0.32549017667770386 -0.1921520233154297
-0.8117647171020508 0.30980390310287476 -0.39542293548583984
-0.7647058963775635 0.30980390310287476 -0.5196433067321777
-0.7490196228027344 0.30980390310287476 -0.5267701148986816
-0.5607843399047852 0.30980390310287476 0.2449641227722168
-0.545098066329956 0.30980390310287476 0.23618125915527344
-0.4823529124259949 0.30980390310287476 0.4599118232727051
-0.46666663885116577 0.30980390310287476 0.45932435989379883
-0.38823527097702026 0.30980390310287476 0.6847367286682129
-0.37254899740219116 0.30980390310287476 0.6871342658996582
-0.29411762952804565 0.30980390310287476 0.264620304107666
-0.27843135595321655 0.30980390310287476 0.25915098190307617
0.035294175148010254 0.30980390310287476 0.689551830291748
0.050980448722839355 0.30980390310287476 0.6867780685424805
0.23921573162078857 0.30980390310287476 -0.5426907539367676
0.2549020051956177 0.30980390310287476 -0.5362915992736816
0.3960784673690796 0.30980390310287476 -0.1624598503112793
-0.8117647171020508 0.29411762952804565 -0.3608675003051758
-0.7490196228027344 0.29411762952804565 -0.5293941497802734
-0.7333333492279053 0.29411762952804565 -0.5336289405822754
-0.5607843399047852 0.29411762952804565 0.2621288299560547
-0.498039186000824 0.29411762952804565 0.4521312713623047
-0.4823529124259949 0.29411762952804565 0.4550938606262207
-0.40392154455184937 0.29411762952804565 0.6789460182189941
-0.38823527097702026 0.29411762952804565 0.6820540428161621
-0.27843135595321655 0.29411762952804565 0.2629833221435547
-0.26274508237838745 0.29411762952804565 0.26064491271972656
0.050980448722839355 0.29411762952804565 0.6820058822631836
0.06666672229766846 0.29411762952804565 0.6802825927734375
0.22352945804595947 0.29411762952804565 -0.5502200126647949
0.23921573162078857 0.29411762952804565 -0.5430021286010742
0.3960784673690796 0.29411762952804565 -0.13302850723266602
-0.8117647171020508 0.27843135595321655 -0.32668304443359375
-0.7333333492279053 0.27843135595321655 -0.5417618751525879
-0.7176470756530762 0.27843135595321655 -0.5416855812072754
-0.5764706134796143 0.27843135595321655 0.28275108337402344
-0.5607843399047852 0.27843135595321655 0.28195667266845703
-0.5137255191802979 0.27843135595321655 0.4427957534790039
-0.498039186000824 0.27843135595321655 0.4455842971801758
-0.41960781812667847 0.27843135595321655 0.673060417175293
-0.40392154455184937 0.27843135595321655 0.6762256622314453
-0.26274508237838745 0.27843135595321655 0.2610893249511719
-0.24705880880355835 0.27843135595321655 0.26131772994995117
0.06666672229766846 0.27843135595321655 0.67364501953125
0.08235299587249756 0.27843135595321655 0.6756396293640137
0.20784318447113037 0.27843135595321655 -0.5665407180786133
0.22352945804595947 0.27843135595321655 -0.5536909103393555
0.3960784673690796 0.27843135595321655 -0.1092233657836914
-0.8117647171020508 0.26274508237838745 -0.2922396659851074
-0.7176470756530762 0.26274508237838745 -0.5527544021606445
-0.7019608020782471 0.26274508237838745 -0.5482344627380371
-0.5764706134796143 0.26274508237838745 0.30693578720092773
-0.545098066329956 0.26274508237838745 0.4101285934448242
-0.529411792755127 0.26274508237838745 0.4286012649536133
-0.5137255191802979 0.26274508237838745 0.4288973808288574
-0.43529409170150757 0.26274508237838745 0.6676688194274902
-0.41960781812667847 0.26274508237838745 0.6703195571899414
-0.24705880880355835 0.26274508237838745 0.25737810134887695
-0.23137253522872925 0.26274508237838745 0.25835466384887695
0.09803926944732666 0.26274508237838745 0.6725053787231445
0.19215691089630127 0.26274508237838745 -0.5902891159057617
0.20784318447113037 0.26274508237838745 -0.5755605697631836
0.3803921937942505 0.26274508237838745 -0.10585737228393555
0.3960784673690796 0.26274508237838745 -0.10293865203857422
0.4117647409439087 0.26274508237838745 -0.10555887222290039
0.4274510145187378 0.26274508237838745 -0.11255359649658203
-0.8117647171020508 0.24705880880355835 -0.2574930191040039
-0.7019608020782471 0.24705880880355835 -0.5596895217895508
-0.686274528503418 0.24705880880355835 -0.5555310249328613
-0.5764706134796143 0.24705880880355835 0.3281364440917969
-0.5607843399047852 0.24705880880355835 0.38257598876953125
-0.545098066329956 0.24705880880355835 0.4035191535949707
-0.45098036527633667 0.24705880880355835 0.6640720367431641
-0.43529409170150757 0.24705880880355835 0.6656589508056641
-0.23137253522872925 0.24705880880355835 0.2513127326965332
-0.21568626165390015 0.24705880880355835 0.25496339797973633
0.11372554302215576 0.24705880880355835 0.668485164642334
0.12941181659698486 0.24705880880355835 0.6473727226257324
0.17647063732147217 0.24705880880355835 -0.620755672454834
0.19215691089630127 0.24705880880355835 -0.6078481674194336
0.3647059202194214 0.24705880880355835 -0.11029052734375
0.3803921937942505 0.24705880880355835 -0.1074986457824707
0.4274510145187378 0.24705880880355835 -0.1104884147644043
0.4431372880935669 0.24705880880355835 -0.11335182189941406
-0.8117647171020508 0.23137253522872925 -0.22185277938842773
-0.6705882549285889 0.23137253522872925 -0.5638799667358398
-0.5607843399047852 0.23137253522872925 0.3363924026489258
-0.545098066329956 0.23137253522872925 0.32024240493774414
-0.46666663885116577 0.23137253522872925 0.6591014862060547
-0.45098036527633667 0.23137253522872925 0.6607470512390137
-0.19999998807907104 0.23137253522872925 0.2505183219909668
0.12941181659698486 0.23137253522872925 0.6653585433959961
0.14509809017181396 0.23137253522872925 -0.6470012664794922
0.16078436374664307 0.23137253522872925 -0.6450414657592773
0.17647063732147217 0.23137253522872925 -0.6354475021362305
0.3490196466445923 0.23137253522872925 -0.11561298370361328
0.3647059202194214 0.23137253522872925 -0.11333560943603516
0.4431372880935669 0.23137253522872925 -0.11523628234863281
0.458823561668396 0.23137253522872925 -0.11460065841674805
-0.8117647171020508 0.21568626165390015 -0.18533802032470703
-0.6549019813537598 0.21568626165390015 -0.5713791847229004
-0.6392157077789307 0.21568626165390015 -0.5807490348815918
-0.545098066329956 0.21568626165390015 0.307680606842041
-0.529411792755127 0.21568626165390015 0.3081979751586914
-0.4823529124259949 0.21568626165390015 0.6550121307373047
-0.46666663885116577 0.21568626165390015 0.6559715270996094
-0.18431371450424194 0.21568626165390015 0.24530267715454102
-0.16862744092941284 0.21568626165390015 0.23695707321166992
0.14509809017181396 0.21568626165390015 0.6609086990356445
0.16078436374664307 0.21568626165390015 0.6546463966369629
0.3333333730697632 0.21568626165390015 -0.1212162971496582
0.3490196466445923 0.21568626165390015 -0.11983203887939453
0.458823561668396 0.21568626165390015 -0.11992025375366211
0.4745098352432251 0.21568626165390015 -0.11844778060913086
-0.8117647171020508 0.19999998807907104 -0.14887619018554688
-0.6392157077789307 0.19999998807907104 -0.5805869102478027
-0.6235294342041016 0.19999998807907104 -0.5882205963134766
-0.5137255191802979 0.19999998807907104 0.27948713302612305
-0.498039186000824 0.19999998807907104 0.6483683586120605
-0.4823529124259949 0.19999998807907104 0.6508893966674805
-0.16862744092941284 0.19999998807907104 0.2404799461364746
-0.15294116735458374 0.19999998807907104 0.23647737503051758
0.12941181659698486 0.19999998807907104 -0.7105588912963867
0.14509809017181396 0.19999998807907104 -0.715306282043457
0.16078436374664307 0.19999998807907104 0.6603684425354004
0.17647063732147217 0.19999998807907104 0.6580114364624023
0.3176470994949341 0.19999998807907104 -0.12903976440429688
0.3333333730697632 0.19999998807907104 -0.12826013565063477
0.4745098352432251 0.19999998807907104 -0.12703323364257812
0.4901961088180542 0.19999998807907104 -0.12378787994384766
-0.8117647171020508 0.18431371450424194 -0.11284303665161133
-0.6235294342041016 0.18431371450424194 -0.5945873260498047
-0.6078431606292725 0.18431371450424194 -0.5980000495910645
-0.5137255191802979 0.18431371450424194 0.638728141784668
-0.498039186000824 0.18431371450424194 0.6432590484619141
-0.4823529124259949 0.18431371450424194 0.2290782928466797
-0.15294116735458374 0.18431371450424194 0.2352924346923828
-0.13725489377975464 0.18431371450424194 0.23407936096191406
0.11372554302215576 0.18431371450424194 -0.7136082649230957
0.12941181659698486 0.18431371450424194 -0.7199091911315918
0.17647063732147217 0.18431371450424194 0.6541280746459961
0.19215691089630127 0.18431371450424194 0.6529998779296875
0.301960825920105 0.18431371450424194 -0.13496160507202148
0.3176470994949341 0.18431371450424194 -0.1395111083984375
0.5058823823928833 0.18431371450424194 -0.12993621826171875
-0.8117647171020508 0.16862744092941284 -0.07869815826416016
-0.6078431606292725 0.16862744092941284 -0.6139178276062012
-0.5921568870544434 0.16862744092941284 -0.6161279678344727
-0.529411792755127 0.16862744092941284 0.6256189346313477
-0.5137255191802979 0.16862744092941284 0.6341276168823242
-0.4823529124259949 0.16862744092941284 0.21275615692138672
-0.46666663885116577 0.16862744092941284 0.21451044082641602
-0.13725489377975464 0.16862744092941284 0.2301187515258789
-0.12156862020492554 0.16862744092941284 0.23251819610595703
0.09803926944732666 0.16862744092941284 -0.7162175178527832
0.11372554302215576 0.16862744092941284 -0.7189240455627441
0.19215691089630127 0.16862744092941284 0.644249439239502
0.20784318447113037 0.16862744092941284 0.6463570594787598
0.2862745523452759 0.16862744092941284 -0.13851118087768555
0.301960825920105 0.16862744092941284 -0.14652252197265625
0.5215686559677124 0.16862744092941284 -0.13606500625610352
0.5372549295425415 0.16862744092941284 -0.1446223258972168
-0.8117647171020508 0.15294116735458374 -0.044909000396728516
-0.5921568870544434 0.15294116735458374 -0.6350769996643066
-0.5764706134796143 0.15294116735458374 -0.6352968215942383
-0.545098066329956 0.15294116735458374 0.6159701347351074
-0.529411792755127 0.15294116735458374 0.6206202507019043
-0.46666663885116577 0.15294116735458374 0.21393918991088867
-0.45098036527633667 0.15294116735458374 0.2144794464111328
-0.12156862020492554 0.15294116735458374 0.2269606590270996
-0.10588234663009644 0.15294116735458374 0.2321639060974121
0.08235299587249756 0.15294116735458374 -0.7181892395019531
0.09803926944732666 0.15294116735458374 -0.7241072654724121
0.22352945804595947 0.15294116735458374 0.6377658843994141
0.2705882787704468 0.15294116735458374 -0.145538330078125
0.2862745523452759 0.15294116735458374 -0.15371036529541016
0.5372549295425415 0.15294116735458374 -0.1424560546875
0.5529412031173706 0.15294116735458374 -0.14686870574951172
-0.8117647171020508 0.13725489377975464 -0.011893272399902344
-0.5607843399047852 0.13725489377975464 0.6071739196777344
-0.545098066329956 0.13725489377975464 0.6086854934692383
-0.45098036527633667 0.13725489377975464 0.20687341690063477
-0.43529409170150757 0.13725489377975464 0.20991039276123047
-0.10588234663009644 0.13725489377975464 0.22337865829467773
-0.09019607305526733 0.13725489377975464 0.23192691802978516
0.06666672229766846 0.13725489377975464 -0.725703239440918
0.08235299587249756 0.13725489377975464 -0.7354865074157715
0.23921573162078857 0.13725489377975464 0.6277899742126465
0.2549020051956177 0.13725489377975464 -0.13842344284057617
0.2705882787704468 0.13725489377975464 -0.15233421325683594
0.5529412031173706 0.13725489377975464 -0.1483306884765625
0.5686274766921997 0.13725489377975464 -0.1501755714416504
-0.8117647171020508 0.12156862020492554 0.02178955078125
-0.5764706134796143 0.12156862020492554 0.6012449264526367
-0.5607843399047852 0.12156862020492554 0.596468448638916
-0.545098066329956 0.12156862020492554 -0.6849846839904785
-0.529411792755127 0.12156862020492554 -0.681729793548584
-0.43529409170150757 0.12156862020492554 0.19976806640625
-0.41960781812667847 0.12156862020492554 0.20762300491333008
-0.07450979948043823 0.12156862020492554 0.2320108413696289
-0.05882352590560913 0.12156862020492554 0.22721576690673828
0.050980448722839355 0.12156862020492554 -0.7303810119628906
0.06666672229766846 0.12156862020492554 -0.743741512298584
0.23921573162078857 0.12156862020492554 -0.1486659049987793
0.2549020051956177 0.12156862020492554 0.613121509552002
0.2705882787704468 0.12156862020492554 0.6065530776977539
0.5686274766921997 0.12156862020492554 -0.1548938751220703
0.5843137502670288 0.12156862020492554 -0.15448570251464844
-0.8117647171020508 0.10588234663009644 0.05398988723754883
-0.5921568870544434 0.10588234663009644 0.5947966575622559
-0.5764706134796143 0.10588234663009644 0.5856280326843262
-0.529411792755127 0.10588234663009644 -0.6823940277099609
-0.5137255191802979 0.10588234663009644 -0.68475341796875
-0.41960781812667847 0.10588234663009644 0.1926593780517578
-0.40392154455184937 0.10588234663009644 0.20501947402954102
-0.05882352590560913 0.10588234663009644 0.23044681549072266
-0.04313725233078003 0.10588234663009644 0.2285618782043457
0.035294175148010254 0.10588234663009644 -0.7343578338623047
0.050980448722839355 0.10588234663009644 -0.7433457374572754
0.22352945804595947 0.10588234663009644 -0.13625717163085938
0.23921573162078857 0.10588234663009644 -0.13209056854248047
0.2705882787704468 0.10588234663009644 0.6016368865966797
0.2862745523452759 0.10588234663009644 0.5966315269470215
0.5843137502670288 0.10588234663009644 -0.1624164581298828
0.6000000238418579 0.10588234663009644 -0.16027212142944336
-0.8117647171020508 0.09019607305526733 0.08702659606933594
-0.6078431606292725 0.09019607305526733 0.5810556411743164
-0.5137255191802979 0.09019607305526733 -0.6881575584411621
-0.498039186000824 0.09019607305526733 -0.6946506500244141
-0.38823527097702026 0.09019607305526733 0.20219802856445312
-0.04313725233078003 0.09019607305526733 0.2307271957397461
-0.027450978755950928 0.09019607305526733 0.22825860977172852
0.019607901573181152 0.09019607305526733 -0.7441878318786621
0.035294175148010254 0.09019607305526733 -0.7467141151428223
0.20784318447113037 0.09019607305526733 -0.12850475311279297
0.22352945804595947 0.09019607305526733 -0.12775611877441406
0.2862745523452759 0.09019607305526733 0.5914492607116699
0.301960825920105 0.09019607305526733 0.5885467529296875
0.615686297416687 0.09019607305526733 -0.16697454452514648
-0.8117647171020508 0.07450979948043823 0.12033653259277344
-0.6235294342041016 0.07450979948043823 0.5692100524902344
-0.498039186000824 0.07450979948043823 -0.6964035034179688
-0.4823529124259949 0.07450979948043823 -0.7024273872375488
-0.37254899740219116 0.07450979948043823 0.20041131973266602
-0.35686272382736206 0.07450979948043823 0.19611120223999023
-0.027450978755950928 0.07450979948043823 0.22631549835205078
-0.011764705181121826 0.07450979948043823 0.2252659797668457
0.003921627998352051 0.07450979948043823 -0.7461352348327637
0.019607901573181152 0.07450979948043823 -0.7551069259643555
0.19215691089630127 0.07450979948043823 -0.135711669921875
0.20784318447113037 0.07450979948043823 -0.13431644439697266
0.301960825920105 0.07450979948043823 0.5776371955871582
0.3176470994949341 0.07450979948043823 0.577519416809082
0.6313725709915161 0.07450979948043823 -0.17309951782226562
0.6470588445663452 0.07450979948043823 -0.1827869415283203
-0.8117647171020508 0.05882352590560913 0.1548752784729004
-0.6392157077789307 0.05882352590560913 0.561561107635498
-0.4823529124259949 0.05882352590560913 -0.7049398422241211
-0.46666663885116577 0.05882352590560913 -0.709989070892334
-0.35686272382736206 0.05882352590560913 0.19697284698486328
-0.34117645025253296 0.05882352590560913 0.1944279670715332
-0.011764705181121826 0.05882352590560913 0.21674442291259766
0.003921627998352051 0.05882352590560913 0.22082185745239258
0.17647063732147217 0.05882352590560913 -0.14143800735473633
0.19215691089630127 0.05882352590560913 -0.14411640167236328
0.3333333730697632 0.05882352590560913 0.5695185661315918
0.6470588445663452 0.05882352590560913 -0.1793231964111328
0.6627451181411743 0.05882352590560913 -0.18694400787353516
-0.8117647171020508 0.04313725233078003 0.18903112411499023
-0.6549019813537598 0.04313725233078003 0.5575542449951172
-0.46666663885116577 0.04313725233078003 -0.7127227783203125
-0.45098036527633667 0.04313725233078003 -0.7149367332458496
-0.34117645025253296 0.04313725233078003 0.19211435317993164
-0.32549017667770386 0.04313725233078003 0.19100189208984375
-0.027450978755950928 0.04313725233078003 -0.7733645439147949
0.003921627998352051 0.04313725233078003 0.2073221206665039
0.019607901573181152 0.04313725233078003 0.21169519424438477
0.16078436374664307 0.04313725233078003 -0.14731788635253906
0.17647063732147217 0.04313725233078003 -0.15220165252685547
0.3490196466445923 0.04313725233078003 0.5625739097595215
0.3647059202194214 0.04313725233078003 0.5526061058044434
0.6627451181411743 0.04313725233078003 -0.18825244903564453
0.6784313917160034 0.04313725233078003 -0.19355392456054688
-0.8117647171020508 0.027450978755950928 0.22379398345947266
-0.6705882549285889 0.027450978755950928 0.5529193878173828
-0.43529409170150757 0.027450978755950928 -0.7214031219482422
-0.32549017667770386 0.027450978755950928 0.1835474967956543
-0.30980390310287476 0.027450978755950928 0.18657588958740234
-0.04313725233078003 0.027450978755950928 -0.777684211730957
0.035294175148010254 0.027450978755950928 0.19904565811157227
0.14509809017181396 0.027450978755950928 -0.15232181549072266
0.3647059202194214 0.027450978755950928 0.5535287857055664
0.3803921937942505 0.027450978755950928 0.5463929176330566
0.6784313917160034 0.027450978755950928 -0.19790935516357422
0.6941176652908325 0.027450978755950928 -0.19945907592773438
-0.8117647171020508 0.011764705181121826 0.25792503356933594
-0.686274528503418 0.011764705181121826 0.5491123199462891
-0.41960781812667847 0.011764705181121826 -0.7291326522827148
-0.40392154455184937 0.011764705181121826 -0.7357850074768066
-0.30980390310287476 0.011764705181121826 0.17573308944702148
-0.29411762952804565 0.011764705181121826 0.18286418914794922
-0.05882352590560913 0.011764705181121826 -0.7838582992553711
0.050980448722839355 0.011764705181121826 0.18705224990844727
0.06666672229766846 0.011764705181121826 0.17844438552856445
0.12941181659698486 0.011764705181121826 -0.15405845642089844
0.3803921937942505 0.011764705181121826 0.5446372032165527
0.3960784673690796 0.011764705181121826 0.5406060218811035
0.6941176652908325 0.011764705181121826 -0.2063155174255371
0.7098039388656616 0.011764705181121826 -0.20456743240356445
-0.8117647171020508 -0.003921627998352051 0.29186344146728516
-0.7019608020782471 -0.003921627998352051 0.5423984527587891
-0.40392154455184937 -0.003921627998352051 -0.7364444732666016
-0.38823527097702026 -0.003921627998352051 -0.7402801513671875
-0.27843135595321655 -0.003921627998352051 0.1793656349182129
-0.07450979948043823 -0.003921627998352051 -0.7920370101928711
0.06666672229766846 -0.003921627998352051 0.1755518913269043
0.08235299587249756 -0.003921627998352051 0.17085790634155273
0.11372554302215576 -0.003921627998352051 -0.15113449096679688
0.3960784673690796 -0.003921627998352051 0.5355949401855469
0.4117647409439087 -0.003921627998352051 0.5333170890808105
0.7098039388656616 -0.003921627998352051 -0.21549701690673828
0.7254902124404907 -0.003921627998352051 -0.2107563018798828
-0.8117647171020508 -0.019607901573181152 0.3245210647583008
-0.7176470756530762 -0.019607901573181152 0.5357389450073242
-0.38823527097702026 -0.019607901573181152 -0.7412891387939453
-0.37254899740219116 -0.019607901573181152 -0.7442069053649902
-0.26274508237838745 -0.019607901573181152 0.17559385299682617
-0.24705880880355835 -0.019607901573181152 0.1707620620727539
-0.09019607305526733 -0.019607901573181152 -0.8050174713134766
0.08235299587249756 -0.019607901573181152 0.1631612777709961
0.09803926944732666 -0.019607901573181152 0.1589188575744629
0.4117647409439087 -0.019607901573181152 0.5257411003112793
0.4274510145187378 -0.019607901573181152 0.5254535675048828
0.7411764860153198 -0.019607901573181152 -0.21718502044677734
0.7568627595901489 -0.019607901573181152 -0.2280416488647461
-0.8117647171020508 -0.035294175148010254 0.3571662902832031
-0.7333333492279053 -0.035294175148010254 0.5293726921081543
-0.37254899740219116 -0.035294175148010254 -0.7469754219055176
-0.35686272382736206 -0.035294175148010254 -0.7503972053527832
-0.24705880880355835 -0.035294175148010254 0.1727156639099121
-0.23137253522872925 -0.035294175148010254 0.1718907356262207
-0.10588234663009644 -0.035294175148010254 -0.8237175941467285
0.08235299587249756 -0.035294175148010254 -0.0888218879699707
0.09803926944732666 -0.035294175148010254 0.1485271453857422
0.11372554302215576 -0.035294175148010254 0.14904260635375977
0.4274510145187378 -0.035294175148010254 0.5135159492492676
0.4431372880935669 -0.035294175148010254 0.5169997215270996
0.7568627595901489 -0.035294175148010254 -0.22282886505126953
0.772549033164978 -0.035294175148010254 -0.23069334030151367
-0.8117647171020508 -0.050980448722839355 0.38962459564208984
-0.7647058963775635 -0.050980448722839355 0.5141143798828125
-0.7490196228027344 -0.050980448722839355 0.5242748260498047
-0.35686272382736206 -0.050980448722839355 -0.7548527717590332
-0.34117645025253296 -0.050980448722839355 -0.7552485466003418
-0.23137253522872925 -0.050980448722839355 0.17285442352294922
-0.21568626165390015 -0.050980448722839355 0.17499732971191406
-0.12156862020492554 -0.050980448722839355 -0.8377952575683594
0.06666672229766846 -0.050980448722839355 -0.09693622589111328
0.11372554302215576 -0.050980448722839355 0.1345219612121582
0.12941181659698486 -0.050980448722839355 0.1383957862854004
0.458823561668396 -0.050980448722839355 0.5086994171142578
0.4745098352432251 -0.050980448722839355 0.49748897552490234
0.772549033164978 -0.050980448722839355 -0.2282853126525879
0.7882353067398071 -0.050980448722839355 -0.23297119140625
-0.8117647171020508 -0.06666672229766846 0.42179107666015625
-0.7803921699523926 -0.06666672229766846 0.5109696388244629
-0.7647058963775635 -0.06666672229766846 0.5200896263122559
-0.32549017667770386 -0.06666672229766846 -0.7596068382263184
-0.21568626165390015 -0.06666672229766846 0.17433452606201172
-0.19999998807907104 -0.06666672229766846 0.1767435073852539
-0.13725489377975464 -0.06666672229766846 -0.8477282524108887
0.050980448722839355 -0.06666672229766846 -0.10746431350708008
0.14509809017181396 -0.06666672229766846 0.12616729736328125
0.4745098352432251 -0.06666672229766846 0.49975156784057617
0.4901961088180542 -0.06666672229766846 0.49205493927001953
0.7882353067398071 -0.06666672229766846 -0.23451805114746094
0.8039215803146362 -0.06666672229766846 -0.2403717041015625
-0.8117647171020508 -0.08235299587249756 0.45423078536987305
-0.7960784435272217 -0.08235299587249756 0.5089707374572754
-0.7803921699523926 -0.08235299587249756 0.5156826972961426
-0.30980390310287476 -0.08235299587249756 -0.763728141784668
-0.29411762952804565 -0.08235299587249756 -0.771519660949707
-0.19999998807907104 -0.08235299587249756 0.1716141700744629
-0.18431371450424194 -0.08235299587249756 0.17618894577026367
-0.16862744092941284 -0.08235299587249756 -0.8356804847717285
-0.15294116735458374 -0.08235299587249756 -0.8488001823425293
0.035294175148010254 -0.08235299587249756 -0.11816024780273438
0.16078436374664307 -0.08235299587249756 0.1152791976928711
0.17647063732147217 -0.08235299587249756 0.1060171127319336
0.4901961088180542 -0.08235299587249756 0.48947906494140625
0.5058823823928833 -0.08235299587249756 0.4836430549621582
0.8039215803146362 -0.08235299587249756 -0.2420964241027832
0.8196078538894653 -0.08235299587249756 -0.24825143814086914
-0.8117647171020508 -0.09803926944732666 0.4990859031677246
-0.7960784435272217 -0.09803926944732666 0.5111713409423828
-0.29411762952804565 -0.09803926944732666 -0.7718377113342285
-0.27843135595321655 -0.09803926944732666 -0.781379222869873
-0.18431371450424194 -0.09803926944732666 -0.7374944686889648
-0.16862744092941284 -0.09803926944732666 0.1739330291748047
0.019607901573181152 -0.09803926944732666 -0.1281299591064453
0.17647063732147217 -0.09803926944732666 0.10464239120483398
0.19215691089630127 -0.09803926944732666 0.09851741790771484
0.5058823823928833 -0.09803926944732666 0.4784812927246094
0.5215686559677124 -0.09803926944732666 0.4757070541381836
0.8039215803146362 -0.09803926944732666 -0.2601046562194824
0.8196078538894653 -0.09803926944732666 -0.22104978561401367
-0.8117647171020508 -0.11372554302215576 0.49913835525512695
-0.7960784435272217 -0.11372554302215576 0.5005736351013184
-0.27843135595321655 -0.11372554302215576 -0.7822742462158203
-0.26274508237838745 -0.11372554302215576 -0.7891678810119629
-0.19999998807907104 -0.11372554302215576 -0.8334612846374512
-0.18431371450424194 -0.11372554302215576 -0.8340969085693359
-0.15294116735458374 -0.11372554302215576 0.16903162002563477
-0.13725489377975464 -0.11372554302215576 0.16188526153564453
0.003921627998352051 -0.11372554302215576 -0.13812637329101562
0.19215691089630127 -0.11372554302215576 0.09413862228393555
0.20784318447113037 -0.11372554302215576 0.0901632308959961
0.5215686559677124 -0.11372554302215576 0.4677009582519531
0.5372549295425415 -0.11372554302215576 0.4678812026977539
0.7882353067398071 -0.11372554302215576 -0.2809562683105469
0.8196078538894653 -0.11372554302215576 -0.1869497299194336
-0.7960784435272217 -0.12941181659698486 0.496002197265625
-0.7803921699523926 -0.12941181659698486 0.5003304481506348
-0.26274508237838745 -0.12941181659698486 -0.7904400825500488
-0.24705880880355835 -0.12941181659698486 -0.7981429100036621
-0.21568626165390015 -0.12941181659698486 -0.8247370719909668
-0.19999998807907104 -0.12941181659698486 -0.8267984390258789
-0.13725489377975464 -0.12941181659698486 0.16184616088867188
-0.12156862020492554 -0.12941181659698486 0.15895318984985352
-0.027450978755950928 -0.12941181659698486 -0.1542224884033203
-0.011764705181121826 -0.12941181659698486 -0.1470503807067871
0.20784318447113037 -0.12941181659698486 0.08339071273803711
0.22352945804595947 -0.12941181659698486 0.08203744888305664
0.5372549295425415 -0.12941181659698486 0.45702171325683594
0.5529412031173706 -0.12941181659698486 0.45952796936035156
0.7568627595901489 -0.12941181659698486 -0.3041849136352539
0.772549033164978 -0.12941181659698486 -0.292022705078125
0.8196078538894653 -0.12941181659698486 -0.15359258651733398
-0.7647058963775635 -0.14509809017181396 0.4995107650756836
-0.24705880880355835 -0.14509809017181396 -0.7928943634033203
-0.23137253522872925 -0.14509809017181396 -0.7965450286865234
-0.21568626165390015 -0.14509809017181396 -0.8089933395385742
-0.12156862020492554 -0.14509809017181396 0.15523004531860352
-0.10588234663009644 -0.14509809017181396 0.15462303161621094
-0.04313725233078003 -0.14509809017181396 -0.16102361679077148
-0.027450978755950928 -0.14509809017181396 -0.15444469451904297
0.22352945804595947 -0.14509809017181396 0.07236623764038086
0.23921573162078857 -0.14509809017181396 0.07381725311279297
0.5686274766921997 -0.14509809017181396 0.45133256912231445
0.7411764860153198 -0.14509809017181396 -0.3109426498413086
0.7568627595901489 -0.14509809017181396 -0.30167531967163086
0.8196078538894653 -0.14509809017181396 -0.12002706527709961
-0.7490196228027344 -0.16078436374664307 0.49629974365234375
-0.7333333492279053 -0.16078436374664307 0.48928070068359375
-0.23137253522872925 -0.16078436374664307 -0.767754077911377
-0.10588234663009644 -0.16078436374664307 0.1502385139465332
-0.09019607305526733 -0.16078436374664307 0.14850425720214844
-0.05882352590560913 -0.16078436374664307 -0.16193151473999023
-0.04313725233078003 -0.16078436374664307 -0.15884828567504883
0.2549020051956177 -0.16078436374664307 0.06492471694946289
0.5843137502670288 -0.16078436374664307 0.44283199310302734
0.6000000238418579 -0.16078436374664307 0.4324359893798828
0.7254902124404907 -0.16078436374664307 -0.31667566299438477
0.7411764860153198 -0.16078436374664307 -0.30718994140625
0.8196078538894653 -0.16078436374664307 -0.0867304801940918
-0.7333333492279053 -0.17647063732147217 0.49155759811401367
-0.7176470756530762 -0.17647063732147217 0.4872570037841797
-0.23137253522872925 -0.17647063732147217 -0.7343282699584961
-0.09019607305526733 -0.17647063732147217 0.14035320281982422
-0.07450979948043823 -0.17647063732147217 0.14553546905517578
-0.05882352590560913 -0.17647063732147217 -0.16490936279296875
0.2705882787704468 -0.17647063732147217 0.057123661041259766
0.2862745523452759 -0.17647063732147217 0.047953128814697266
0.6000000238418579 -0.17647063732147217 0.434079647064209
0.615686297416687 -0.17647063732147217 0.4273810386657715
0.7098039388656616 -0.17647063732147217 -0.3247413635253906
0.7254902124404907 -0.17647063732147217 -0.31267452239990234
0.8196078538894653 -0.17647063732147217 -0.052922725677490234
-0.7176470756530762 -0.19215691089630127 0.4855523109436035
-0.7019608020782471 -0.19215691089630127 0.48316431045532227
-0.23137253522872925 -0.19215691089630127 -0.7022395133972168
-0.09019607305526733 -0.19215691089630127 -0.2689085006713867
-0.07450979948043823 -0.19215691089630127 -0.23612689971923828
-0.05882352590560913 -0.19215691089630127 0.1410670280456543
0.2862745523452759 -0.19215691089630127 0.04908132553100586
0.301960825920105 -0.19215691089630127 0.042849063873291016
0.615686297416687 -0.19215691089630127 0.4249143600463867
0.6313725709915161 -0.19215691089630127 0.4197721481323242
0.6941176652908325 -0.19215691089630127 -0.3295760154724121
0.7098039388656616 -0.19215691089630127 -0.3193955421447754
0.8196078538894653 -0.19215691089630127 -0.01941823959350586
-0.7019608020782471 -0.20784318447113037 0.47898101806640625
-0.686274528503418 -0.20784318447113037 0.47826671600341797
-0.23137253522872925 -0.20784318447113037 -0.6676831245422363
-0.10588234663009644 -0.20784318447113037 -0.28941917419433594
-0.09019607305526733 -0.20784318447113037 -0.27437543869018555
-0.04313725233078003 -0.20784318447113037 0.1334705352783203
-0.027450978755950928 -0.20784318447113037 0.12596559524536133
0.301960825920105 -0.20784318447113037 0.0402226448059082
0.3176470994949341 -0.20784318447113037 0.03572511672973633
0.6313725709915161 -0.20784318447113037 0.4169802665710449
0.6470588445663452 -0.20784318447113037 0.41358423233032227
0.6784313917160034 -0.20784318447113037 -0.3318338394165039
0.6941176652908325 -0.20784318447113037 -0.3266453742980957
0.8196078538894653 -0.20784318447113037 0.014428138732910156
-0.686274528503418 -0.22352945804595947 0.4706230163574219
-0.6705882549285889 -0.22352945804595947 0.47258424758911133
-0.23137253522872925 -0.22352945804595947 -0.6295313835144043
-0.12156862020492554 -0.22352945804595947 -0.30580711364746094
-0.10588234663009644 -0.22352945804595947 -0.29913330078125
-0.027450978755950928 -0.22352945804595947 0.12291765213012695
-0.011764705181121826 -0.22352945804595947 0.11841726303100586
0.3176470994949341 -0.22352945804595947 0.029879093170166016
0.3333333730697632 -0.22352945804595947 0.028667926788330078
0.6470588445663452 -0.22352945804595947 0.40918636322021484
0.6627451181411743 -0.22352945804595947 0.4097261428833008
0.6784313917160034 -0.22352945804595947 -0.3278317451477051
0.8196078538894653 -0.22352945804595947 0.04843425750732422
-0.6549019813537598 -0.23921573162078857 0.46703004837036133
-0.23137253522872925 -0.23921573162078857 -0.5921154022216797
-0.13725489377975464 -0.23921573162078857 -0.31970834732055664
-0.12156862020492554 -0.23921573162078857 -0.31624555587768555
-0.011764705181121826 -0.23921573162078857 0.113861083984375
0.003921627998352051 -0.23921573162078857 0.11037683486938477
0.3333333730697632 -0.23921573162078857 0.020332813262939453
0.3490196466445923 -0.23921573162078857 0.022372722625732422
0.6470588445663452 -0.23921573162078857 -0.35619258880615234
0.6627451181411743 -0.23921573162078857 0.4011702537536621
0.6784313917160034 -0.23921573162078857 0.40171384811401367
0.8196078538894653 -0.23921573162078857 0.08374786376953125
-0.6392157077789307 -0.2549020051956177 0.4605259895324707
-0.6235294342041016 -0.2549020051956177 0.45006752014160156
-0.23137253522872925 -0.2549020051956177 -0.5555167198181152
-0.15294116735458374 -0.2549020051956177 -0.3332185745239258
-0.13725489377975464 -0.2549020051956177 -0.32911014556884766
0.003921627998352051 -0.2549020051956177 0.1050267219543457
0.019607901573181152 -0.2549020051956177 0.10383129119873047
0.3647059202194214 -0.2549020051956177 0.01568889617919922
0.6313725709915161 -0.2549020051956177 -0.35305309295654297
0.6470588445663452 -0.2549020051956177 -0.35245752334594727
0.6941176652908325 -0.2549020051956177 0.39422607421875
0.8196078538894653 -0.2549020051956177 0.11726522445678711
-0.6235294342041016 -0.2705882787704468 0.4536442756652832
-0.6078431606292725 -0.2705882787704468 0.44722890853881836
-0.23137253522872925 -0.2705882787704468 -0.5199370384216309
-0.16862744092941284 -0.2705882787704468 -0.34589529037475586
-0.15294116735458374 -0.2705882787704468 -0.34186410903930664
0.019607901573181152 -0.2705882787704468 0.09696245193481445
0.035294175148010254 -0.2705882787704468 0.09719419479370117
0.3803921937942505 -0.2705882787704468 0.007648944854736328
0.3960784673690796 -0.2705882787704468 -0.003665924072265625
0.615686297416687 -0.2705882787704468 -0.3499178886413574
0.6313725709915161 -0.2705882787704468 -0.3507504463195801
0.7098039388656616 -0.2705882787704468 0.3851737976074219
0.7254902124404907 -0.2705882787704468 0.3783683776855469
0.8196078538894653 -0.2705882787704468 0.15022611618041992
-0.6078431606292725 -0.2862745523452759 0.44613170623779297
-0.5921568870544434 -0.2862745523452759 0.4420952796936035
-0.23137253522872925 -0.2862745523452759 -0.48448896408081055
-0.18431371450424194 -0.2862745523452759 -0.3575448989868164
-0.16862744092941284 -0.2862745523452759 -0.3547062873840332
0.050980448722839355 -0.2862745523452759 0.08918952941894531
0.3960784673690796 -0.2862745523452759 -0.00021648406982421875
0.4117647409439087 -0.2862745523452759 -0.007889747619628906
0.6000000238418579 -0.2862745523452759 -0.35248756408691406
0.615686297416687 -0.2862745523452759 -0.3500370979309082
0.7254902124404907 -0.2862745523452759 0.37387800216674805
0.7411764860153198 -0.2862745523452759 0.3699507713317871
0.8196078538894653 -0.2862745523452759 0.18172979354858398
-0.5921568870544434 -0.301960825920105 0.4380497932434082
-0.5764706134796143 -0.301960825920105 0.43591785430908203
-0.23137253522872925 -0.301960825920105 -0.45026206970214844
-0.19999998807907104 -0.301960825920105 -0.3670010566711426
-0.18431371450424194 -0.301960825920105 -0.3660464286804199
0.06666672229766846 -0.301960825920105 0.08132171630859375
0.08235299587249756 -0.301960825920105 0.07067251205444336
0.4117647409439087 -0.301960825920105 -0.007792472839355469
0.4274510145187378 -0.301960825920105 -0.013058662414550781
0.5843137502670288 -0.301960825920105 -0.35577821731567383
0.6000000238418579 -0.301960825920105 -0.35303306579589844
0.7411764860153198 -0.301960825920105 0.3642997741699219
0.7568627595901489 -0.301960825920105 0.36206960678100586
0.8196078538894653 -0.301960825920105 0.21503782272338867
-0.5764706134796143 -0.3176470994949341 0.4287590980529785
-0.5607843399047852 -0.3176470994949341 0.4296708106994629
-0.23137253522872925 -0.3176470994949341 -0.41831159591674805
-0.21568626165390015 -0.3176470994949341 -0.3788914680480957
-0.19999998807907104 -0.3176470994949341 -0.3756852149963379
0.08235299587249756 -0.3176470994949341 0.07277536392211914
0.09803926944732666 -0.3176470994949341 0.06507253646850586
0.4274510145187378 -0.3176470994949341 -0.019342422485351562
0.4431372880935669 -0.3176470994949341 -0.022731304168701172
0.5686274766921997 -0.3176470994949341 -0.36409997940063477
0.5843137502670288 -0.3176470994949341 -0.3590059280395508
0.7568627595901489 -0.3176470994949341 0.3534536361694336
0.772549033164978 -0.3176470994949341 0.35345983505249023
0.8196078538894653 -0.3176470994949341 0.2490081787109375
-0.5607843399047852 -0.3333333730697632 0.4197196960449219
-0.545098066329956 -0.3333333730697632 0.42449522018432617
-0.23137253522872925 -0.3333333730697632 -0.39173221588134766
-0.21568626165390015 -0.3333333730697632 -0.3866844177246094
0.09803926944732666 -0.3333333730697632 0.0640873908996582
0.11372554302215576 -0.3333333730697632 0.05921316146850586
0.4431372880935669 -0.3333333730697632 -0.03393745422363281
0.458823561668396 -0.3333333730697632 -0.031766414642333984
0.5529412031173706 -0.3333333730697632 -0.36943626403808594
0.5686274766921997 -0.3333333730697632 -0.36608362197875977
0.772549033164978 -0.3333333730697632 0.3408541679382324
0.7882353067398071 -0.3333333730697632 0.34426355361938477
0.8196078538894653 -0.3333333730697632 0.2837543487548828
-0.529411792755127 -0.3490196466445923 0.41881275177001953
-0.21568626165390015 -0.3490196466445923 -0.3843398094177246
-0.19999998807907104 -0.3490196466445923 -0.3893618583679199
0.11372554302215576 -0.3490196466445923 0.05574941635131836
0.12941181659698486 -0.3490196466445923 0.05392169952392578
0.4745098352432251 -0.3490196466445923 -0.04182863235473633
0.5372549295425415 -0.3490196466445923 -0.3676924705505371
0.5529412031173706 -0.3490196466445923 -0.36923837661743164
0.8039215803146362 -0.3490196466445923 0.33605003356933594
0.8196078538894653 -0.3490196466445923 0.31840038299560547
-0.5137255191802979 -0.3647059202194214 0.41248226165771484
-0.498039186000824 -0.3647059202194214 0.40375709533691406
-0.19999998807907104 -0.3647059202194214 -0.3823428153991699
-0.18431371450424194 -0.3647059202194214 -0.384157657623291
0.12941181659698486 -0.3647059202194214 0.047232627868652344
0.14509809017181396 -0.3647059202194214 0.04797792434692383
0.4901961088180542 -0.3647059202194214 -0.0534052848815918
0.5058823823928833 -0.3647059202194214 -0.06665277481079102
0.5215686559677124 -0.3647059202194214 -0.3590998649597168
0.5372549295425415 -0.3647059202194214 -0.3663339614868164
0.8039215803146362 -0.3647059202194214 0.3339962959289551
0.8196078538894653 -0.3647059202194214 0.3293185234069824
-0.498039186000824 -0.3803921937942505 0.40568065643310547
-0.4823529124259949 -0.3803921937942505 0.4004940986633301
-0.18431371450424194 -0.3803921937942505 -0.38428211212158203
-0.16862744092941284 -0.3803921937942505 -0.3843116760253906
0.14509809017181396 -0.3803921937942505 0.03727388381958008
0.16078436374664307 -0.3803921937942505 0.04023599624633789
0.5058823823928833 -0.3803921937942505 -0.06482887268066406
0.5215686559677124 -0.3803921937942505 -0.06884241104125977
0.7882353067398071 -0.3803921937942505 0.3298192024230957
0.8039215803146362 -0.3803921937942505 0.3332037925720215
-0.4823529124259949 -0.3960784673690796 0.3990211486816406
-0.46666663885116577 -0.3960784673690796 0.39579105377197266
-0.16862744092941284 -0.3960784673690796 -0.39000940322875977
-0.15294116735458374 -0.3960784673690796 -0.3869471549987793
0.17647063732147217 -0.3960784673690796 0.03153657913208008
0.4901961088180542 -0.3960784673690796 -0.36476898193359375
0.5058823823928833 -0.3960784673690796 -0.3572864532470703
0.5215686559677124 -0.3960784673690796 -0.070343017578125
0.5372549295425415 -0.3960784673690796 -0.0703125
0.772549033164978 -0.3960784673690796 0.3269681930541992
0.7882353067398071 -0.3960784673690796 0.32953357696533203
-0.46666663885116577 -0.4117647409439087 0.39112186431884766
-0.45098036527633667 -0.4117647409439087 0.3893299102783203
-0.13725489377975464 -0.4117647409439087 -0.3920321464538574
0.19215691089630127 -0.4117647409439087 0.022940635681152344
0.20784318447113037 -0.4117647409439087 0.014440059661865234
0.4745098352432251 -0.4117647409439087 -0.38129377365112305
0.4901961088180542 -0.4117647409439087 -0.370236873626709
0.5372549295425415 -0.4117647409439087 -0.0742025375366211
0.5529412031173706 -0.4117647409439087 -0.07246971130371094
0.7568627595901489 -0.4117647409439087 0.32228851318359375
0.772549033164978 -0.4117647409439087 0.3246288299560547
-0.45098036527633667 -0.4274510145187378 0.38132476806640625
-0.43529409170150757 -0.4274510145187378 0.38165950775146484
-0.12156862020492554 -0.4274510145187378 -0.39760494232177734
-0.10588234663009644 -0.4274510145187378 -0.4056529998779297
0.20784318447113037 -0.4274510145187378 0.014370918273925781
0.22352945804595947 -0.4274510145187378 0.00820302963256836
0.458823561668396 -0.4274510145187378 -0.39738988876342773
0.4745098352432251 -0.4274510145187378 -0.38453102111816406
0.5529412031173706 -0.4274510145187378 -0.08516407012939453
0.5686274766921997 -0.4274510145187378 -0.07045316696166992
0.7411764860153198 -0.4274510145187378 0.31746959686279297
0.7568627595901489 -0.4274510145187378 0.31964921951293945
-0.41960781812667847 -0.4431372880935669 0.3743138313293457
-0.10588234663009644 -0.4431372880935669 -0.403470516204834
-0.09019607305526733 -0.4431372880935669 -0.4085884094238281
0.22352945804595947 -0.4431372880935669 0.005141735076904297
0.23921573162078857 -0.4431372880935669 0.0018525123596191406
0.4431372880935669 -0.4431372880935669 -0.40950489044189453
0.458823561668396 -0.4431372880935669 -0.40157556533813477
0.5372549295425415 -0.4431372880935669 -0.14064979553222656
0.5529412031173706 -0.4431372880935669 -0.12136077880859375
0.5686274766921997 -0.4431372880935669 -0.07150077819824219
0.5843137502670288 -0.4431372880935669 -0.05402565002441406
0.7254902124404907 -0.4431372880935669 0.31064414978027344
0.7411764860153198 -0.4431372880935669 0.31180524826049805
-0.40392154455184937 -0.458823561668396 0.3669710159301758
-0.38823527097702026 -0.458823561668396 0.35604047775268555
-0.09019607305526733 -0.458823561668396 -0.4099922180175781
-0.07450979948043823 -0.458823561668396 -0.4120030403137207
0.23921573162078857 -0.458823561668396 -0.0026311874389648438
0.2549020051956177 -0.458823561668396 -0.0020112991333007812
0.4274510145187378 -0.458823561668396 -0.41530847549438477
0.4431372880935669 -0.458823561668396 -0.41364383697509766
0.5215686559677124 -0.458823561668396 -0.1589674949645996
0.5372549295425415 -0.458823561668396 -0.1482400894165039
0.5843137502670288 -0.458823561668396 -0.027618408203125
0.7098039388656616 -0.458823561668396 0.3029026985168457
0.7254902124404907 -0.458823561668396 0.30298900604248047
-0.38823527097702026 -0.4745098352432251 0.3586544990539551
-0.37254899740219116 -0.4745098352432251 0.3514227867126465
-0.07450979948043823 -0.4745098352432251 -0.41672563552856445
-0.05882352590560913 -0.4745098352432251 -0.4161701202392578
0.2549020051956177 -0.4745098352432251 -0.009935379028320312
0.2705882787704468 -0.4745098352432251 -0.0061016082763671875
0.4117647409439087 -0.4745098352432251 -0.4180946350097656
0.4274510145187378 -0.4745098352432251 -0.42032432556152344
0.5058823823928833 -0.4745098352432251 -0.16933870315551758
0.5215686559677124 -0.4745098352432251 -0.16655778884887695
0.5686274766921997 -0.4745098352432251 -0.008790969848632812
0.5843137502670288 -0.4745098352432251 -0.0060214996337890625
0.6941176652908325 -0.4745098352432251 0.2950100898742676
0.7098039388656616 -0.4745098352432251 0.2947812080383301
-0.37254899740219116 -0.4901961088180542 0.35076379776000977
-0.35686272382736206 -0.4901961088180542 0.34640979766845703
-0.05882352590560913 -0.4901961088180542 -0.42556285858154297
-0.04313725233078003 -0.4901961088180542 -0.4216609001159668
0.2862745523452759 -0.4901961088180542 -0.010894298553466797
0.3960784673690796 -0.4901961088180542 -0.42174196243286133
0.4117647409439087 -0.4901961088180542 -0.42487668991088867
0.4901961088180542 -0.4901961088180542 -0.1770639419555664
0.5058823823928833 -0.4901961088180542 -0.17522716522216797
0.5686274766921997 -0.4901961088180542 0.013773441314697266
0.6784313917160034 -0.4901961088180542 0.287595272064209
0.6941176652908325 -0.4901961088180542 0.2869243621826172
-0.35686272382736206 -0.5058823823928833 0.34276676177978516
-0.34117645025253296 -0.5058823823928833 0.3399496078491211
-0.027450978755950928 -0.5058823823928833 -0.42667675018310547
0.301960825920105 -0.5058823823928833 -0.017003536224365234
0.3176470994949341 -0.5058823823928833 -0.025367259979248047
0.3803921937942505 -0.5058823823928833 -0.42813730239868164
0.3960784673690796 -0.5058823823928833 -0.42601919174194336
0.4745098352432251 -0.5058823823928833 -0.18383407592773438
0.4901961088180542 -0.5058823823928833 -0.18175935745239258
0.5529412031173706 -0.5058823823928833 0.020586013793945312
0.5686274766921997 -0.5058823823928833 0.01869964599609375
0.6627451181411743 -0.5058823823928833 0.2796788215637207
0.6784313917160034 -0.5058823823928833 0.2778501510620117
-0.34117645025253296 -0.5215686559677124 0.3340601921081543
-0.32549017667770386 -0.5215686559677124 0.33290910720825195
-0.011764705181121826 -0.5215686559677124 -0.431088924407959
0.003921627998352051 -0.5215686559677124 -0.44027280807495117
0.3176470994949341 -0.5215686559677124 -0.024718284606933594
0.3333333730697632 -0.5215686559677124 -0.03115224838256836
0.3647059202194214 -0.5215686559677124 -0.43057775497436523
0.3803921937942505 -0.5215686559677124 -0.43035221099853516
0.458823561668396 -0.5215686559677124 -0.18700218200683594
0.4745098352432251 -0.5215686559677124 -0.18438291549682617
0.5372549295425415 -0.5215686559677124 0.019016742706298828
0.5529412031173706 -0.5215686559677124 0.02661609649658203
0.6470588445663452 -0.5215686559677124 0.2746143341064453
0.6627451181411743 -0.5215686559677124 0.2704329490661621
-0.32549017667770386 -0.5372549295425415 0.32257938385009766
-0.30980390310287476 -0.5372549295425415 0.32462024688720703
0.003921627998352051 -0.5372549295425415 -0.4377932548522949
0.019607901573181152 -0.5372549295425415 -0.4452080726623535
0.3333333730697632 -0.5372549295425415 -0.0345921516418457
0.3490196466445923 -0.5372549295425415 -0.0383152961730957
0.3647059202194214 -0.5372549295425415 -0.43181324005126953
0.458823561668396 -0.5372549295425415 -0.18219757080078125
0.5372549295425415 -0.5372549295425415 0.026885986328125
0.6313725709915161 -0.5372549295425415 0.2710137367248535
0.6470588445663452 -0.5372549295425415 0.2666745185852051
-0.29411762952804565 -0.5529412031173706 0.31685781478881836
-0.27843135595321655 -0.5529412031173706 0.3037443161010742
0.019607901573181152 -0.5529412031173706 -0.44659852981567383
0.035294175148010254 -0.5529412031173706 -0.4511427879333496
0.3333333730697632 -0.5529412031173706 -0.45467615127563477
0.3490196466445923 -0.5529412031173706 -0.04540586471557617
0.3647059202194214 -0.5529412031173706 -0.05040884017944336
0.4431372880935669 -0.5529412031173706 -0.17354631423950195
0.5215686559677124 -0.5529412031173706 0.023303985595703125
0.615686297416687 -0.5529412031173706 0.2674522399902344
0.6313725709915161 -0.5529412031173706 0.2637767791748047
-0.27843135595321655 -0.5686274766921997 0.30900096893310547
-0.26274508237838745 -0.5686274766921997 0.2993888854980469
0.035294175148010254 -0.5686274766921997 -0.45491790771484375
0.050980448722839355 -0.5686274766921997 -0.4564518928527832
0.3176470994949341 -0.5686274766921997 -0.45711469650268555
0.3647059202194214 -0.5686274766921997 -0.05821800231933594
0.3803921937942505 -0.5686274766921997 -0.06061220169067383
0.4274510145187378 -0.5686274766921997 -0.1568279266357422
0.4431372880935669 -0.5686274766921997 -0.1642451286315918
