ply
format ascii 1.0
element vertex 795
property float x
property float y
property float z
end_header
0.09803926944732666 0.6235294342041016 0.08600044250488281
0.11372554302215576 0.6235294342041016 0.08930826187133789
0.12941181659698486 0.6235294342041016 0.09452247619628906
0.14509809017181396 0.6235294342041016 0.10109996795654297
0.16078436374664307 0.6235294342041016 0.10811471939086914
0.17647063732147217 0.6235294342041016 0.11360025405883789
0.19215691089630127 0.6235294342041016 0.11902093887329102
0.20784318447113037 0.6235294342041016 0.124114990234375
-0.16862744092941284 0.6078431606292725 0.03957319259643555
-0.15294116735458374 0.6078431606292725 0.0472874641418457
-0.13725489377975464 0.6078431606292725 0.05059242248535156
-0.12156862020492554 0.6078431606292725 0.053084373474121094
-0.10588234663009644 0.6078431606292725 0.055052757263183594
-0.09019607305526733 0.6078431606292725 0.05745697021484375
-0.07450979948043823 0.6078431606292725 0.05896282196044922
-0.05882352590560913 0.6078431606292725 0.05733013153076172
-0.04313725233078003 0.6078431606292725 0.05387258529663086
0.050980448722839355 0.6078431606292725 0.06768512725830078
0.06666672229766846 0.6078431606292725 0.0729975700378418
0.08235299587249756 0.6078431606292725 0.07750654220581055
0.09803926944732666 0.6078431606292725 0.07993125915527344
0.11372554302215576 0.6078431606292725 0.08160829544067383
0.12941181659698486 0.6078431606292725 0.06965112686157227
0.14509809017181396 0.6078431606292725 0.06337642669677734
0.16078436374664307 0.6078431606292725 0.07722997665405273
0.17647063732147217 0.6078431606292725 0.10695266723632812
0.19215691089630127 0.6078431606292725 0.115386962890625
0.20784318447113037 0.6078431606292725 0.12552785873413086
0.22352945804595947 0.6078431606292725 0.13643884658813477
0.23921573162078857 0.6078431606292725 0.14883995056152344
0.2549020051956177 0.6078431606292725 0.1626119613647461
0.2705882787704468 0.6078431606292725 0.205169677734375
0.2862745523452759 0.6078431606292725 0.17821884155273438
-0.24705880880355835 0.5921568870544434 0.016304969787597656
-0.23137253522872925 0.5921568870544434 0.040570735931396484
-0.21568626165390015 0.5921568870544434 0.043190956115722656
-0.19999998807907104 0.5921568870544434 0.04417705535888672
-0.18431371450424194 0.5921568870544434 0.04425764083862305
-0.16862744092941284 0.5921568870544434 0.04489564895629883
-0.15294116735458374 0.5921568870544434 0.04152059555053711
0.16078436374664307 0.5921568870544434 0.03069591522216797
0.17647063732147217 0.5921568870544434 0.026391029357910156
0.19215691089630127 0.5921568870544434 0.022919654846191406
0.20784318447113037 0.5921568870544434 0.019790172576904297
0.22352945804595947 0.5921568870544434 0.021713733673095703
0.2705882787704468 0.5921568870544434 0.24035310745239258
0.2862745523452759 0.5921568870544434 0.1571187973022461
0.301960825920105 0.5921568870544434 0.14760208129882812
-0.29411762952804565 0.5764706134796143 0.04503059387207031
-0.27843135595321655 0.5764706134796143 0.04525613784790039
-0.26274508237838745 0.5764706134796143 0.043872833251953125
-0.24705880880355835 0.5764706134796143 0.04352569580078125
-0.23137253522872925 0.5764706134796143 0.04078102111816406
-0.21568626165390015 0.5764706134796143 0.01598978042602539
0.22352945804595947 0.5764706134796143 0.02423238754272461
0.23921573162078857 0.5764706134796143 0.03182840347290039
0.2549020051956177 0.5764706134796143 0.036922454833984375
0.2705882787704468 0.5764706134796143 0.275723934173584
0.301960825920105 0.5764706134796143 0.13634586334228516
0.3176470994949341 0.5764706134796143 0.13040971755981445
-0.35686272382736206 0.5607843399047852 0.045053958892822266
-0.34117645025253296 0.5607843399047852 0.04918718338012695
-0.32549017667770386 0.5607843399047852 0.050380706787109375
-0.30980390310287476 0.5607843399047852 0.049100399017333984
-0.29411762952804565 0.5607843399047852 0.043627262115478516
-0.27843135595321655 0.5607843399047852 0.004863262176513672
-0.26274508237838745 0.5607843399047852 0.003612518310546875
-0.24705880880355835 0.5607843399047852 -0.0
0.2549020051956177 0.5607843399047852 0.026836872100830078
0.2705882787704468 0.5607843399047852 0.30918407440185547
0.2862745523452759 0.5607843399047852 0.03292703628540039
0.301960825920105 0.5607843399047852 0.024204254150390625
0.3176470994949341 0.5607843399047852 0.11547088623046875
0.3333333730697632 0.5607843399047852 0.11345767974853516
-0.40392154455184937 0.545098066329956 0.04982328414916992
-0.38823527097702026 0.545098066329956 0.0504145622253418
-0.37254899740219116 0.545098066329956 0.05065155029296875
-0.35686272382736206 0.545098066329956 0.05051136016845703
-0.30980390310287476 0.545098066329956 0.0024819374084472656
-0.29411762952804565 0.545098066329956 0.0004305839538574219
0.2705882787704468 0.545098066329956 0.34119510650634766
0.301960825920105 0.545098066329956 0.028462886810302734
0.3176470994949341 0.545098066329956 0.028089523315429688
0.3490196466445923 0.545098066329956 0.09989690780639648
0.3647059202194214 0.545098066329956 0.08103227615356445
-0.41960781812667847 0.529411792755127 0.08175039291381836
-0.40392154455184937 0.529411792755127 0.054973602294921875
-0.34117645025253296 0.529411792755127 -0.013452529907226562
-0.32549017667770386 0.529411792755127 -0.01020050048828125
0.2705882787704468 0.529411792755127 0.3706955909729004
0.3333333730697632 0.529411792755127 0.02499675750732422
0.3490196466445923 0.529411792755127 0.027886390686035156
0.3647059202194214 0.529411792755127 0.08763694763183594
0.3803921937942505 0.529411792755127 0.07636070251464844
-0.43529409170150757 0.5137255191802979 0.05438804626464844
-0.41960781812667847 0.5137255191802979 0.12828779220581055
-0.37254899740219116 0.5137255191802979 -0.03362131118774414
-0.35686272382736206 0.5137255191802979 -0.024474143981933594
-0.34117645025253296 0.5137255191802979 -0.02458810806274414
0.2705882787704468 0.5137255191802979 0.39995765686035156
0.3490196466445923 0.5137255191802979 0.015011310577392578
0.3647059202194214 0.5137255191802979 0.02284097671508789
0.3803921937942505 0.5137255191802979 0.07641077041625977
0.3960784673690796 0.5137255191802979 0.06795120239257812
-0.43529409170150757 0.498039186000824 0.03963899612426758
-0.41960781812667847 0.498039186000824 0.17090511322021484
-0.38823527097702026 0.498039186000824 -0.03885173797607422
-0.37254899740219116 0.498039186000824 -0.0347132682800293
0.2705882787704468 0.498039186000824 0.4302549362182617
0.3803921937942505 0.498039186000824 0.02216625213623047
0.3960784673690796 0.498039186000824 0.06761693954467773
0.4117647409439087 0.498039186000824 0.060198307037353516
-0.45098036527633667 0.4823529124259949 0.03042888641357422
-0.41960781812667847 0.4823529124259949 0.2120513916015625
-0.40392154455184937 0.4823529124259949 -0.03955221176147461
-0.38823527097702026 0.4823529124259949 -0.04406404495239258
0.2705882787704468 0.4823529124259949 0.4608907699584961
0.3960784673690796 0.4823529124259949 0.02497720718383789
0.4117647409439087 0.4823529124259949 0.06081867218017578
0.4274510145187378 0.4823529124259949 0.053685665130615234
-0.46666663885116577 0.46666663885116577 -9.632110595703125e-05
-0.45098036527633667 0.46666663885116577 0.03117990493774414
-0.41960781812667847 0.46666663885116577 0.2602043151855469
0.2705882787704468 0.46666663885116577 0.49080467224121094
0.4274510145187378 0.46666663885116577 0.05448150634765625
0.4431372880935669 0.46666663885116577 0.04697084426879883
-0.46666663885116577 0.45098036527633667 0.022414684295654297
-0.45098036527633667 0.45098036527633667 0.0198516845703125
-0.43529409170150757 0.45098036527633667 -0.03299665451049805
-0.41960781812667847 0.45098036527633667 0.3047614097595215
0.17647063732147217 0.45098036527633667 0.5055036544799805
0.19215691089630127 0.45098036527633667 0.5080180168151855
0.20784318447113037 0.45098036527633667 0.5098505020141602
0.22352945804595947 0.45098036527633667 0.511110782623291
0.23921573162078857 0.45098036527633667 0.512265682220459
0.2549020051956177 0.45098036527633667 0.5138187408447266
0.2705882787704468 0.45098036527633667 0.5158333778381348
0.2862745523452759 0.45098036527633667 0.5102696418762207
0.4431372880935669 0.45098036527633667 0.04593801498413086
0.458823561668396 0.45098036527633667 0.036759376525878906
-0.4823529124259949 0.43529409170150757 -0.011551380157470703
-0.46666663885116577 0.43529409170150757 0.01339864730834961
-0.45098036527633667 0.43529409170150757 -0.035420894622802734
-0.41960781812667847 0.43529409170150757 0.34589195251464844
0.035294175148010254 0.43529409170150757 0.5034322738647461
0.050980448722839355 0.43529409170150757 0.5048131942749023
0.06666672229766846 0.43529409170150757 0.5069727897644043
0.08235299587249756 0.43529409170150757 0.5074052810668945
0.09803926944732666 0.43529409170150757 0.5074634552001953
0.11372554302215576 0.43529409170150757 0.5079421997070312
0.12941181659698486 0.43529409170150757 0.5087952613830566
0.14509809017181396 0.43529409170150757 0.5094780921936035
0.16078436374664307 0.43529409170150757 0.5097007751464844
0.17647063732147217 0.43529409170150757 0.5077247619628906
0.19215691089630127 0.43529409170150757 0.505183219909668
0.2862745523452759 0.43529409170150757 0.5141854286193848
0.301960825920105 0.43529409170150757 0.5046052932739258
0.458823561668396 0.43529409170150757 0.034361839294433594
0.4745098352432251 0.43529409170150757 0.023421764373779297
-0.498039186000824 0.41960781812667847 -0.036398887634277344
-0.4823529124259949 0.41960781812667847 -0.004492759704589844
-0.46666663885116577 0.41960781812667847 -0.03766298294067383
-0.41960781812667847 0.41960781812667847 0.38553285598754883
-0.12156862020492554 0.41960781812667847 0.5044698715209961
-0.10588234663009644 0.41960781812667847 0.5081157684326172
-0.09019607305526733 0.41960781812667847 0.5117206573486328
-0.07450979948043823 0.41960781812667847 0.5134797096252441
-0.05882352590560913 0.41960781812667847 0.5143728256225586
-0.04313725233078003 0.41960781812667847 0.5138759613037109
-0.027450978755950928 0.41960781812667847 0.5125484466552734
-0.011764705181121826 0.41960781812667847 0.5112152099609375
0.003921627998352051 0.41960781812667847 0.5113048553466797
0.019607901573181152 0.41960781812667847 0.5104069709777832
0.035294175148010254 0.41960781812667847 0.507387638092041
0.050980448722839355 0.41960781812667847 0.5031509399414062
0.301960825920105 0.41960781812667847 0.508059024810791
0.4745098352432251 0.41960781812667847 0.02257823944091797
-0.498039186000824 0.40392154455184937 -0.01975393295288086
-0.4823529124259949 0.40392154455184937 -0.01920318603515625
-0.41960781812667847 0.40392154455184937 0.42310523986816406
-0.26274508237838745 0.40392154455184937 0.49526453018188477
-0.24705880880355835 0.40392154455184937 0.4969491958618164
-0.23137253522872925 0.40392154455184937 0.4989504814147949
-0.21568626165390015 0.40392154455184937 0.5008502006530762
-0.19999998807907104 0.40392154455184937 0.5015578269958496
-0.18431371450424194 0.40392154455184937 0.5020413398742676
-0.16862744092941284 0.40392154455184937 0.5032825469970703
-0.15294116735458374 0.40392154455184937 0.5055651664733887
-0.13725489377975464 0.40392154455184937 0.5074610710144043
-0.12156862020492554 0.40392154455184937 0.5081501007080078
-0.10588234663009644 0.40392154455184937 0.5061817169189453
0.3176470994949341 0.40392154455184937 0.5005426406860352
0.4901961088180542 0.40392154455184937 0.013012409210205078
-0.5137255191802979 0.38823527097702026 -0.038014888763427734
-0.498039186000824 0.38823527097702026 -0.02700328826904297
-0.41960781812667847 0.38823527097702026 0.4579763412475586
-0.40392154455184937 0.38823527097702026 0.44049930572509766
-0.38823527097702026 0.38823527097702026 0.49312734603881836
-0.37254899740219116 0.38823527097702026 0.49843502044677734
-0.35686272382736206 0.38823527097702026 0.5021791458129883
-0.34117645025253296 0.38823527097702026 0.5042223930358887
-0.32549017667770386 0.38823527097702026 0.5049428939819336
-0.30980390310287476 0.38823527097702026 0.5052824020385742
-0.29411762952804565 0.38823527097702026 0.5057039260864258
-0.27843135595321655 0.38823527097702026 0.5046849250793457
-0.26274508237838745 0.38823527097702026 0.5019903182983398
-0.24705880880355835 0.38823527097702026 0.4980316162109375
0.3333333730697632 0.38823527097702026 0.49187469482421875
0.5058823823928833 0.38823527097702026 0.006732463836669922
-0.5137255191802979 0.37254899740219116 -0.03871440887451172
-0.498039186000824 0.37254899740219116 -0.058807373046875
-0.41960781812667847 0.37254899740219116 0.4856147766113281
-0.40392154455184937 0.37254899740219116 0.49112701416015625
-0.38823527097702026 0.37254899740219116 0.4951920509338379
-0.07450979948043823 0.37254899740219116 0.010122299194335938
-0.05882352590560913 0.37254899740219116 0.017634868621826172
-0.04313725233078003 0.37254899740219116 0.020630359649658203
-0.027450978755950928 0.37254899740219116 0.021039962768554688
-0.011764705181121826 0.37254899740219116 0.021297931671142578
0.003921627998352051 0.37254899740219116 0.021179676055908203
0.019607901573181152 0.37254899740219116 0.020218372344970703
0.035294175148010254 0.37254899740219116 0.01831960678100586
0.050980448722839355 0.37254899740219116 0.015324592590332031
0.06666672229766846 0.37254899740219116 0.009945869445800781
0.08235299587249756 0.37254899740219116 0.0007801055908203125
0.3333333730697632 0.37254899740219116 0.48206329345703125
0.3490196466445923 0.37254899740219116 0.48316192626953125
0.5058823823928833 0.37254899740219116 -0.0019998550415039062
0.5215686559677124 0.37254899740219116 0.0009918212890625
-0.529411792755127 0.35686272382736206 -0.05431365966796875
-0.5137255191802979 0.35686272382736206 -0.04632902145385742
-0.43529409170150757 0.35686272382736206 0.4799308776855469
-0.41960781812667847 0.35686272382736206 0.4889702796936035
-0.12156862020492554 0.35686272382736206 0.011012077331542969
-0.10588234663009644 0.35686272382736206 0.01737070083618164
-0.09019607305526733 0.35686272382736206 0.019721508026123047
-0.07450979948043823 0.35686272382736206 0.020483970642089844
-0.05882352590560913 0.35686272382736206 0.019173622131347656
0.06666672229766846 0.35686272382736206 0.0083160400390625
0.08235299587249756 0.35686272382736206 0.006477832794189453
0.09803926944732666 0.35686272382736206 0.0028700828552246094
0.11372554302215576 0.35686272382736206 -0.0010309219360351562
0.12941181659698486 0.35686272382736206 -0.008276939392089844
0.3490196466445923 0.35686272382736206 0.47667360305786133
0.3647059202194214 0.35686272382736206 0.4739861488342285
0.5215686559677124 0.35686272382736206 -0.00494384765625
0.5372549295425415 0.35686272382736206 -0.007339000701904297
-0.529411792755127 0.34117645025253296 -0.055652618408203125
-0.43529409170150757 0.34117645025253296 0.48500823974609375
-0.15294116735458374 0.34117645025253296 0.005082130432128906
-0.13725489377975464 0.34117645025253296 0.010965824127197266
-0.12156862020492554 0.34117645025253296 0.011155128479003906
0.12941181659698486 0.34117645025253296 -0.008407115936279297
0.14509809017181396 0.34117645025253296 -0.010778427124023438
0.16078436374664307 0.34117645025253296 -0.017057418823242188
0.3647059202194214 0.34117645025253296 0.46924400329589844
0.3803921937942505 0.34117645025253296 0.4644002914428711
0.5372549295425415 0.34117645025253296 -0.012392520904541016
0.5529412031173706 0.34117645025253296 -0.018949031829833984
-0.545098066329956 0.32549017667770386 -0.06750774383544922
-0.529411792755127 0.32549017667770386 -0.06446361541748047
-0.45098036527633667 0.32549017667770386 0.47054624557495117
-0.43529409170150757 0.32549017667770386 0.4789309501647949
-0.18431371450424194 0.32549017667770386 -0.006425380706787109
-0.16862744092941284 0.32549017667770386 0.0015416145324707031
-0.15294116735458374 0.32549017667770386 0.0014772415161132812
0.16078436374664307 0.32549017667770386 -0.022362232208251953
0.17647063732147217 0.32549017667770386 -0.02304983139038086
0.19215691089630127 0.32549017667770386 -0.028507232666015625
0.3803921937942505 0.32549017667770386 0.4621701240539551
0.3960784673690796 0.32549017667770386 0.45455408096313477
0.5372549295425415 0.32549017667770386 -0.05730009078979492
0.5529412031173706 0.32549017667770386 -0.019877910614013672
-0.545098066329956 0.30980390310287476 -0.0702214241027832
-0.45098036527633667 0.30980390310287476 0.4704771041870117
-0.19999998807907104 0.30980390310287476 -0.011243820190429688
-0.18431371450424194 0.30980390310287476 -0.007993698120117188
0.19215691089630127 0.30980390310287476 -0.03240013122558594
0.20784318447113037 0.30980390310287476 -0.034436702728271484
0.3960784673690796 0.30980390310287476 0.4545454978942871
0.4117647409439087 0.30980390310287476 0.4438800811767578
0.5529412031173706 0.30980390310287476 -0.042102813720703125
0.5686274766921997 0.30980390310287476 -0.025102615356445312
-0.5607843399047852 0.29411762952804565 -0.0810847282409668
-0.545098066329956 0.29411762952804565 -0.07966947555541992
-0.46666663885116577 0.29411762952804565 0.4544367790222168
-0.45098036527633667 0.29411762952804565 0.4627809524536133
-0.23137253522872925 0.29411762952804565 -0.0317234992980957
-0.21568626165390015 0.29411762952804565 -0.02009868621826172
0.22352945804595947 0.29411762952804565 -0.04274463653564453
0.23921573162078857 0.29411762952804565 -0.05296468734741211
0.4117647409439087 0.29411762952804565 0.4473147392272949
0.5529412031173706 0.29411762952804565 -0.06933164596557617
0.5686274766921997 0.29411762952804565 -0.02900838851928711
0.5843137502670288 0.29411762952804565 -0.03008413314819336
-0.5607843399047852 0.27843135595321655 -0.08332586288452148
-0.46666663885116577 0.27843135595321655 0.4542827606201172
-0.24705880880355835 0.27843135595321655 -0.039026737213134766
-0.23137253522872925 0.27843135595321655 -0.029474258422851562
0.23921573162078857 0.27843135595321655 -0.05142974853515625
0.2549020051956177 0.27843135595321655 -0.060803890228271484
0.4274510145187378 0.27843135595321655 0.43900060653686523
0.5686274766921997 0.27843135595321655 -0.07385826110839844
0.5843137502670288 0.27843135595321655 -0.030172348022460938
0.6000000238418579 0.27843135595321655 -0.036283016204833984
-0.5764706134796143 0.26274508237838745 -0.09180498123168945
-0.5607843399047852 0.26274508237838745 -0.08734321594238281
-0.4823529124259949 0.26274508237838745 0.4385237693786621
-0.46666663885116577 0.26274508237838745 0.44716358184814453
-0.24705880880355835 0.26274508237838745 -0.0380401611328125
0.2549020051956177 0.26274508237838745 -0.05915021896362305
0.4431372880935669 0.26274508237838745 0.43094635009765625
0.5686274766921997 0.26274508237838745 -0.08687496185302734
0.5843137502670288 0.26274508237838745 -0.09133434295654297
0.6000000238418579 0.26274508237838745 -0.031983375549316406
-0.5764706134796143 0.24705880880355835 -0.0900125503540039
-0.4823529124259949 0.24705880880355835 0.43806886672973633
-0.26274508237838745 0.24705880880355835 -0.045968055725097656
0.2705882787704468 0.24705880880355835 -0.06778669357299805
0.4431372880935669 0.24705880880355835 0.4220747947692871
0.458823561668396 0.24705880880355835 0.4230523109436035
0.5843137502670288 0.24705880880355835 -0.09405279159545898
0.615686297416687 0.24705880880355835 -0.03514719009399414
-0.5921568870544434 0.23137253522872925 -0.10527467727661133
-0.5764706134796143 0.23137253522872925 -0.09047746658325195
-0.4823529124259949 0.23137253522872925 0.43177223205566406
-0.27843135595321655 0.23137253522872925 -0.053694725036621094
-0.26274508237838745 0.23137253522872925 -0.05525684356689453
0.2705882787704468 0.23137253522872925 -0.07994365692138672
0.2862745523452759 0.23137253522872925 -0.07944774627685547
0.458823561668396 0.23137253522872925 0.4161090850830078
0.4745098352432251 0.23137253522872925 0.413729190826416
0.5843137502670288 0.23137253522872925 -0.1027822494506836
0.615686297416687 0.23137253522872925 -0.039342403411865234
0.6313725709915161 0.23137253522872925 -0.041997432708740234
-0.5921568870544434 0.21568626165390015 -0.09096813201904297
-0.5764706134796143 0.21568626165390015 -0.09590291976928711
-0.498039186000824 0.21568626165390015 0.42143726348876953
-0.27843135595321655 0.21568626165390015 -0.0587162971496582
0.2862745523452759 0.21568626165390015 -0.08835172653198242
0.4745098352432251 0.21568626165390015 0.4073915481567383
0.4901961088180542 0.21568626165390015 0.40216541290283203
0.5843137502670288 0.21568626165390015 -0.11236190795898438
0.6000000238418579 0.21568626165390015 -0.11147117614746094
0.6313725709915161 0.21568626165390015 -0.04305601119995117
-0.5921568870544434 0.19999998807907104 -0.0870361328125
-0.5764706134796143 0.19999998807907104 -0.11573266983032227
-0.498039186000824 0.19999998807907104 0.41553211212158203
-0.29411762952804565 0.19999998807907104 -0.06840181350708008
0.301960825920105 0.19999998807907104 -0.10130834579467773
0.4901961088180542 0.19999998807907104 0.3977527618408203
0.5058823823928833 0.19999998807907104 0.38977766036987305
0.5843137502670288 0.19999998807907104 -0.12010717391967773
0.6000000238418579 0.19999998807907104 -0.11326456069946289
0.6470588445663452 0.19999998807907104 -0.049031734466552734
-0.6078431606292725 0.18431371450424194 -0.0917048454284668
-0.5921568870544434 0.18431371450424194 -0.08745241165161133
-0.5137255191802979 0.18431371450424194 0.4050717353820801
-0.29411762952804565 0.18431371450424194 -0.07445383071899414
0.301960825920105 0.18431371450424194 -0.11086702346801758
0.5058823823928833 0.18431371450424194 0.38828229904174805
0.6000000238418579 0.18431371450424194 -0.11487770080566406
0.6470588445663452 0.18431371450424194 -0.056303977966308594
0.6627451181411743 0.18431371450424194 -0.05810880661010742
-0.6078431606292725 0.16862744092941284 -0.08974266052246094
-0.5921568870544434 0.16862744092941284 -0.10334968566894531
-0.5137255191802979 0.16862744092941284 0.39876890182495117
-0.30980390310287476 0.16862744092941284 -0.08852434158325195
-0.29411762952804565 0.16862744092941284 -0.08537149429321289
-0.09019607305526733 0.16862744092941284 0.40738916397094727
-0.07450979948043823 0.16862744092941284 0.4110136032104492
-0.05882352590560913 0.16862744092941284 0.41134214401245117
-0.04313725233078003 0.16862744092941284 0.4114871025085449
-0.027450978755950928 0.16862744092941284 0.41178083419799805
-0.011764705181121826 0.16862744092941284 0.41235780715942383
0.003921627998352051 0.16862744092941284 0.41290950775146484
0.019607901573181152 0.16862744092941284 0.41376352310180664
0.035294175148010254 0.16862744092941284 0.41473960876464844
0.050980448722839355 0.16862744092941284 0.41602373123168945
0.06666672229766846 0.16862744092941284 0.4163999557495117
0.08235299587249756 0.16862744092941284 0.4160757064819336
0.09803926944732666 0.16862744092941284 0.41161155700683594
0.301960825920105 0.16862744092941284 -0.1269392967224121
0.3176470994949341 0.16862744092941284 -0.12346267700195312
0.5215686559677124 0.16862744092941284 0.3791084289550781
0.6000000238418579 0.16862744092941284 -0.114593505859375
0.6627451181411743 0.16862744092941284 -0.0603489875793457
-0.6235294342041016 0.15294116735458374 -0.10613393783569336
-0.6078431606292725 0.15294116735458374 -0.09064626693725586
-0.5921568870544434 0.15294116735458374 -0.09966135025024414
-0.529411792755127 0.15294116735458374 0.38820886611938477
-0.30980390310287476 0.15294116735458374 -0.09302902221679688
-0.13725489377975464 0.15294116735458374 0.4105682373046875
-0.12156862020492554 0.15294116735458374 0.4136967658996582
-0.10588234663009644 0.15294116735458374 0.412564754486084
-0.09019607305526733 0.15294116735458374 0.4102020263671875
0.09803926944732666 0.15294116735458374 0.4129514694213867
0.11372554302215576 0.15294116735458374 0.4137544631958008
0.12941181659698486 0.15294116735458374 0.41176509857177734
0.14509809017181396 0.15294116735458374 0.40720462799072266
0.3176470994949341 0.15294116735458374 -0.13127374649047852
0.5372549295425415 0.15294116735458374 0.37036991119384766
0.6000000238418579 0.15294116735458374 -0.11688423156738281
0.6784313917160034 0.15294116735458374 -0.06706762313842773
-0.6235294342041016 0.13725489377975464 -0.10260820388793945
-0.5921568870544434 0.13725489377975464 -0.09479141235351562
-0.529411792755127 0.13725489377975464 0.38335275650024414
-0.30980390310287476 0.13725489377975464 -0.09889888763427734
-0.16862744092941284 0.13725489377975464 0.40950584411621094
-0.15294116735458374 0.13725489377975464 0.4129981994628906
-0.13725489377975464 0.13725489377975464 0.41226673126220703
0.14509809017181396 0.13725489377975464 0.4049534797668457
0.16078436374664307 0.13725489377975464 0.4049220085144043
0.17647063732147217 0.13725489377975464 0.4000968933105469
0.3176470994949341 0.13725489377975464 -0.13862323760986328
0.5372549295425415 0.13725489377975464 0.3590850830078125
0.5529412031173706 0.13725489377975464 0.36244678497314453
0.6000000238418579 0.13725489377975464 -0.12183761596679688
0.6784313917160034 0.13725489377975464 -0.07343244552612305
0.6941176652908325 0.13725489377975464 -0.06952238082885742
-0.6392157077789307 0.12156862020492554 -0.11276054382324219
-0.6235294342041016 0.12156862020492554 -0.10091829299926758
-0.5921568870544434 0.12156862020492554 -0.09488248825073242
-0.545098066329956 0.12156862020492554 0.37464475631713867
-0.30980390310287476 0.12156862020492554 -0.10307836532592773
-0.18431371450424194 0.12156862020492554 0.40866613388061523
-0.16862744092941284 0.12156862020492554 0.4091916084289551
0.17647063732147217 0.12156862020492554 0.39722156524658203
0.19215691089630127 0.12156862020492554 0.39636802673339844
0.3176470994949341 0.12156862020492554 -0.14452123641967773
0.5529412031173706 0.12156862020492554 0.35549402236938477
0.5686274766921997 0.12156862020492554 0.35516977310180664
0.6000000238418579 0.12156862020492554 -0.13243675231933594
0.6941176652908325 0.12156862020492554 -0.053915977478027344
-0.6392157077789307 0.10588234663009644 -0.104400634765625
-0.6078431606292725 0.10588234663009644 -0.12045812606811523
-0.5921568870544434 0.10588234663009644 -0.10367107391357422
-0.545098066329956 0.10588234663009644 0.3699378967285156
-0.30980390310287476 0.10588234663009644 -0.10312938690185547
-0.21568626165390015 0.10588234663009644 0.39812803268432617
-0.19999998807907104 0.10588234663009644 0.4038429260253906
0.20784318447113037 0.10588234663009644 0.39061641693115234
0.22352945804595947 0.10588234663009644 0.38445615768432617
0.3176470994949341 0.10588234663009644 -0.1455092430114746
0.5686274766921997 0.10588234663009644 0.3513603210449219
0.5843137502670288 0.10588234663009644 0.3472476005554199
0.6000000238418579 0.10588234663009644 -0.14522027969360352
0.615686297416687 0.10588234663009644 -0.13933277130126953
0.6784313917160034 0.10588234663009644 -0.11156272888183594
0.6941176652908325 0.10588234663009644 -0.031097888946533203
-0.6392157077789307 0.09019607305526733 -0.10246038436889648
-0.6078431606292725 0.09019607305526733 -0.12549638748168945
-0.5921568870544434 0.09019607305526733 -0.1120457649230957
-0.5607843399047852 0.09019607305526733 0.36000680923461914
-0.545098066329956 0.09019607305526733 0.3525400161743164
-0.30980390310287476 0.09019607305526733 -0.09809398651123047
-0.23137253522872925 0.09019607305526733 0.3938174247741699
-0.21568626165390015 0.09019607305526733 0.3976411819458008
0.22352945804595947 0.09019607305526733 0.38363170623779297
0.23921573162078857 0.09019607305526733 0.3811807632446289
0.3176470994949341 0.09019607305526733 -0.1416769027709961
0.5843137502670288 0.09019607305526733 0.3453812599182129
0.6000000238418579 0.09019607305526733 0.33379411697387695
0.615686297416687 0.09019607305526733 -0.15366315841674805
0.6627451181411743 0.09019607305526733 -0.13179874420166016
0.6784313917160034 0.09019607305526733 -0.12354421615600586
0.6941176652908325 0.09019607305526733 0.0004448890686035156
-0.6549019813537598 0.07450979948043823 -0.1110992431640625
-0.6392157077789307 0.07450979948043823 -0.10602807998657227
-0.5921568870544434 0.07450979948043823 -0.1191701889038086
-0.5607843399047852 0.07450979948043823 0.3572525978088379
-0.30980390310287476 0.07450979948043823 -0.08383798599243164
-0.24705880880355835 0.07450979948043823 0.38825225830078125
-0.23137253522872925 0.07450979948043823 0.3915848731994629
0.23921573162078857 0.07450979948043823 0.37906455993652344
0.2549020051956177 0.07450979948043823 0.3757328987121582
0.3176470994949341 0.07450979948043823 -0.13124608993530273
0.6000000238418579 0.07450979948043823 0.3372077941894531
0.615686297416687 0.07450979948043823 0.3229355812072754
0.6627451181411743 0.07450979948043823 -0.13869237899780273
0.6941176652908325 0.07450979948043823 0.03742361068725586
-0.6549019813537598 0.05882352590560913 -0.11045646667480469
-0.5921568870544434 0.05882352590560913 -0.12326622009277344
-0.5764706134796143 0.05882352590560913 0.349240779876709
-0.5607843399047852 0.05882352590560913 0.34360170364379883
-0.30980390310287476 0.05882352590560913 -0.060047149658203125
-0.26274508237838745 0.05882352590560913 0.38108348846435547
-0.24705880880355835 0.05882352590560913 0.3855414390563965
0.2549020051956177 0.05882352590560913 0.3731083869934082
0.2705882787704468 0.05882352590560913 0.36697816848754883
0.3176470994949341 0.05882352590560913 -0.11222124099731445
0.6000000238418579 0.05882352590560913 -0.20560407638549805
0.615686297416687 0.05882352590560913 0.3258662223815918
0.6470588445663452 0.05882352590560913 -0.15890979766845703
0.6941176652908325 0.05882352590560913 0.07418251037597656
-0.6705882549285889 0.04313725233078003 -0.13103675842285156
-0.6549019813537598 0.04313725233078003 -0.11474180221557617
-0.5921568870544434 0.04313725233078003 -0.12920808792114258
-0.5764706134796143 0.04313725233078003 0.3465604782104492
-0.30980390310287476 0.04313725233078003 -0.019748210906982422
-0.26274508237838745 0.04313725233078003 0.37990665435791016
0.2705882787704468 0.04313725233078003 0.3644528388977051
0.3176470994949341 0.04313725233078003 -0.07565450668334961
0.6000000238418579 0.04313725233078003 -0.2473592758178711
0.6313725709915161 0.04313725233078003 0.30997371673583984
0.6470588445663452 0.04313725233078003 -0.16478824615478516
0.6941176652908325 0.04313725233078003 0.10861063003540039
-0.6705882549285889 0.027450978755950928 -0.1270456314086914
-0.5921568870544434 0.027450978755950928 0.33532094955444336
-0.5764706134796143 0.027450978755950928 0.33210039138793945
-0.30980390310287476 0.027450978755950928 0.02996826171875
-0.27843135595321655 0.027450978755950928 0.371243953704834
0.2862745523452759 0.027450978755950928 0.3546152114868164
0.3176470994949341 0.027450978755950928 -0.010265827178955078
0.6000000238418579 0.027450978755950928 -0.24945354461669922
0.6313725709915161 0.027450978755950928 -0.13481473922729492
0.6470588445663452 0.027450978755950928 0.2894129753112793
0.6941176652908325 0.027450978755950928 0.14139080047607422
-0.6705882549285889 0.011764705181121826 -0.1327075958251953
-0.5921568870544434 0.011764705181121826 0.32941246032714844
-0.30980390310287476 0.011764705181121826 0.07449960708618164
-0.29411762952804565 0.011764705181121826 0.36049938201904297
-0.27843135595321655 0.011764705181121826 0.3651275634765625
0.2862745523452759 0.011764705181121826 0.34592151641845703
0.301960825920105 0.011764705181121826 0.34253597259521484
0.3176470994949341 0.011764705181121826 0.05654716491699219
0.6000000238418579 0.011764705181121826 -0.2388458251953125
0.615686297416687 0.011764705181121826 -0.2094120979309082
0.6313725709915161 0.011764705181121826 -0.22258281707763672
0.6470588445663452 0.011764705181121826 0.27619409561157227
0.6627451181411743 0.011764705181121826 0.2753939628601074
0.6941176652908325 0.011764705181121826 0.16958856582641602
-0.686274528503418 -0.003921627998352051 -0.15165090560913086
-0.6705882549285889 -0.003921627998352051 -0.14565467834472656
-0.6078431606292725 -0.003921627998352051 0.3168215751647949
-0.5921568870544434 -0.003921627998352051 0.31462669372558594
-0.30980390310287476 -0.003921627998352051 0.12014341354370117
-0.29411762952804565 -0.003921627998352051 0.36010313034057617
0.301960825920105 -0.003921627998352051 0.3423037528991699
0.3176470994949341 -0.003921627998352051 0.10113763809204102
0.6000000238418579 -0.003921627998352051 -0.23715734481811523
0.615686297416687 -0.003921627998352051 -0.2552218437194824
0.6627451181411743 -0.003921627998352051 0.25675439834594727
0.6784313917160034 -0.003921627998352051 0.2564687728881836
0.6941176652908325 -0.003921627998352051 0.1926865577697754
-0.686274528503418 -0.019607901573181152 -0.14272832870483398
-0.6078431606292725 -0.019607901573181152 0.3115720748901367
-0.5921568870544434 -0.019607901573181152 -0.22643184661865234
-0.5764706134796143 -0.019607901573181152 -0.2427539825439453
-0.30980390310287476 -0.019607901573181152 0.3399238586425781
-0.29411762952804565 -0.019607901573181152 0.35120296478271484
-0.27843135595321655 -0.019607901573181152 -0.16737079620361328
0.2862745523452759 -0.019607901573181152 -0.18729543685913086
0.301960825920105 -0.019607901573181152 0.334871768951416
0.3176470994949341 -0.019607901573181152 0.3266334533691406
0.5843137502670288 -0.019607901573181152 -0.2637639045715332
0.6000000238418579 -0.019607901573181152 -0.24889326095581055
0.615686297416687 -0.019607901573181152 -0.27326536178588867
0.6784313917160034 -0.019607901573181152 0.23618698120117188
0.6941176652908325 -0.019607901573181152 0.23334550857543945
-0.686274528503418 -0.035294175148010254 -0.11885881423950195
-0.6705882549285889 -0.035294175148010254 -0.15634632110595703
-0.6235294342041016 -0.035294175148010254 0.29714155197143555
-0.6078431606292725 -0.035294175148010254 0.29923105239868164
-0.5764706134796143 -0.035294175148010254 -0.25078344345092773
-0.30980390310287476 -0.035294175148010254 0.34513235092163086
-0.27843135595321655 -0.035294175148010254 -0.17521905899047852
0.2862745523452759 -0.035294175148010254 -0.1910266876220703
0.3176470994949341 -0.035294175148010254 0.3270754814147949
0.5843137502670288 -0.035294175148010254 -0.26470279693603516
0.6000000238418579 -0.035294175148010254 -0.2652463912963867
0.6941176652908325 -0.035294175148010254 0.22781038284301758
-0.686274528503418 -0.050980448722839355 -0.08445882797241211
-0.6549019813537598 -0.050980448722839355 -0.16063833236694336
-0.6392157077789307 -0.050980448722839355 -0.16541528701782227
-0.6235294342041016 -0.050980448722839355 0.2924962043762207
-0.5764706134796143 -0.050980448722839355 -0.2585010528564453
-0.30980390310287476 -0.050980448722839355 0.33994531631469727
-0.26274508237838745 -0.050980448722839355 -0.19383525848388672
0.2705882787704468 -0.050980448722839355 -0.20128488540649414
0.3176470994949341 -0.050980448722839355 0.32115840911865234
0.5843137502670288 -0.050980448722839355 -0.2741060256958008
0.6784313917160034 -0.050980448722839355 0.22178316116333008
-0.686274528503418 -0.06666672229766846 -0.05170392990112305
-0.6392157077789307 -0.06666672229766846 0.2797064781188965
-0.6235294342041016 -0.06666672229766846 0.2796764373779297
-0.5764706134796143 -0.06666672229766846 -0.266237735748291
-0.5607843399047852 -0.06666672229766846 -0.27609777450561523
-0.30980390310287476 -0.06666672229766846 0.33385324478149414
-0.26274508237838745 -0.06666672229766846 -0.20585393905639648
-0.24705880880355835 -0.06666672229766846 -0.21063566207885742
0.2549020051956177 -0.06666672229766846 -0.21195268630981445
0.2705882787704468 -0.06666672229766846 -0.2055034637451172
0.3176470994949341 -0.06666672229766846 0.31347131729125977
0.5686274766921997 -0.06666672229766846 -0.30262088775634766
0.5843137502670288 -0.06666672229766846 -0.2886776924133301
0.6784313917160034 -0.06666672229766846 0.21813297271728516
-0.686274528503418 -0.08235299587249756 -0.019748210906982422
-0.6392157077789307 -0.08235299587249756 0.2753753662109375
-0.6235294342041016 -0.08235299587249756 -0.22971677780151367
-0.6078431606292725 -0.08235299587249756 -0.24541616439819336
-0.5607843399047852 -0.08235299587249756 -0.2788395881652832
-0.30980390310287476 -0.08235299587249756 0.32667016983032227
-0.24705880880355835 -0.08235299587249756 -0.2169179916381836
-0.23137253522872925 -0.08235299587249756 -0.22311019897460938
0.23921573162078857 -0.08235299587249756 -0.22066068649291992
0.2549020051956177 -0.08235299587249756 -0.21563434600830078
0.3176470994949341 -0.08235299587249756 0.3068504333496094
0.5686274766921997 -0.08235299587249756 -0.3049635887145996
0.6627451181411743 -0.08235299587249756 0.20870208740234375
0.6784313917160034 -0.08235299587249756 0.20545148849487305
-0.686274528503418 -0.09803926944732666 0.012482643127441406
-0.6549019813537598 -0.09803926944732666 0.2629098892211914
-0.6392157077789307 -0.09803926944732666 0.26352739334106445
-0.6078431606292725 -0.09803926944732666 -0.25070714950561523
-0.5921568870544434 -0.09803926944732666 -0.2519068717956543
-0.5607843399047852 -0.09803926944732666 -0.28453922271728516
-0.545098066329956 -0.09803926944732666 -0.28892040252685547
-0.30980390310287476 -0.09803926944732666 0.3198270797729492
-0.23137253522872925 -0.09803926944732666 -0.22933578491210938
-0.21568626165390015 -0.09803926944732666 -0.23221731185913086
0.22352945804595947 -0.09803926944732666 -0.22742509841918945
0.23921573162078857 -0.09803926944732666 -0.2237868309020996
0.3176470994949341 -0.09803926944732666 0.30115747451782227
0.5529412031173706 -0.09803926944732666 -0.3222942352294922
0.5686274766921997 -0.09803926944732666 -0.31129026412963867
0.6627451181411743 -0.09803926944732666 0.2040882110595703
-0.686274528503418 -0.11372554302215576 0.04893159866333008
-0.6549019813537598 -0.11372554302215576 0.258120059967041
-0.5921568870544434 -0.11372554302215576 -0.27799415588378906
-0.5764706134796143 -0.11372554302215576 -0.25070762634277344
-0.545098066329956 -0.11372554302215576 -0.28612375259399414
-0.30980390310287476 -0.11372554302215576 0.3117847442626953
-0.21568626165390015 -0.11372554302215576 -0.23906469345092773
-0.19999998807907104 -0.11372554302215576 -0.2372417449951172
0.20784318447113037 -0.11372554302215576 -0.2334117889404297
0.22352945804595947 -0.11372554302215576 -0.2328662872314453
0.3176470994949341 -0.11372554302215576 0.2943997383117676
0.5529412031173706 -0.11372554302215576 -0.3194742202758789
0.6470588445663452 -0.11372554302215576 0.19410991668701172
0.6627451181411743 -0.11372554302215576 0.1905345916748047
-0.686274528503418 -0.12941181659698486 0.08540821075439453
-0.6705882549285889 -0.12941181659698486 0.2449512481689453
-0.6549019813537598 -0.12941181659698486 0.24676084518432617
-0.5764706134796143 -0.12941181659698486 -0.30097484588623047
-0.5607843399047852 -0.12941181659698486 -0.2574276924133301
-0.545098066329956 -0.12941181659698486 -0.26022768020629883
-0.529411792755127 -0.12941181659698486 -0.2981419563293457
-0.30980390310287476 -0.12941181659698486 0.3034191131591797
-0.18431371450424194 -0.12941181659698486 -0.2416830062866211
-0.16862744092941284 -0.12941181659698486 -0.24509620666503906
0.17647063732147217 -0.12941181659698486 -0.24558448791503906
0.19215691089630127 -0.12941181659698486 -0.2400803565979004
0.3176470994949341 -0.12941181659698486 0.28664255142211914
0.5372549295425415 -0.12941181659698486 -0.33269786834716797
0.5529412031173706 -0.12941181659698486 -0.322512149810791
0.6470588445663452 -0.12941181659698486 0.18891382217407227
-0.686274528503418 -0.14509809017181396 0.12563228607177734
-0.6705882549285889 -0.14509809017181396 0.2386946678161621
-0.545098066329956 -0.14509809017181396 -0.2655034065246582
-0.529411792755127 -0.14509809017181396 -0.26958751678466797
-0.30980390310287476 -0.14509809017181396 0.2959713935852051
-0.16862744092941284 -0.14509809017181396 -0.2505331039428711
-0.15294116735458374 -0.14509809017181396 -0.2499527931213379
-0.13725489377975464 -0.14509809017181396 -0.25417566299438477
0.14509809017181396 -0.14509809017181396 -0.2507643699645996
0.16078436374664307 -0.14509809017181396 -0.24756574630737305
0.17647063732147217 -0.14509809017181396 -0.24764251708984375
0.3176470994949341 -0.14509809017181396 0.2778005599975586
0.5372549295425415 -0.14509809017181396 -0.3276348114013672
0.6313725709915161 -0.14509809017181396 0.18020915985107422
0.6470588445663452 -0.14509809017181396 0.17763614654541016
-0.686274528503418 -0.16078436374664307 0.21573352813720703
-0.6705882549285889 -0.16078436374664307 0.22519683837890625
-0.545098066329956 -0.16078436374664307 -0.3124423027038574
-0.529411792755127 -0.16078436374664307 -0.27335643768310547
-0.5137255191802979 -0.16078436374664307 -0.28270673751831055
-0.30980390310287476 -0.16078436374664307 0.2889366149902344
-0.13725489377975464 -0.16078436374664307 -0.25714826583862305
-0.12156862020492554 -0.16078436374664307 -0.2562294006347656
-0.10588234663009644 -0.16078436374664307 -0.2597661018371582
-0.09019607305526733 -0.16078436374664307 -0.2668795585632324
0.09803926944732666 -0.16078436374664307 -0.2591285705566406
0.11372554302215576 -0.16078436374664307 -0.2538609504699707
0.12941181659698486 -0.16078436374664307 -0.25183773040771484
0.14509809017181396 -0.16078436374664307 -0.253326416015625
0.3176470994949341 -0.16078436374664307 0.26950740814208984
0.5215686559677124 -0.16078436374664307 -0.34719181060791016
0.5372549295425415 -0.16078436374664307 -0.32731008529663086
0.6313725709915161 -0.16078436374664307 0.17520856857299805
-0.686274528503418 -0.17647063732147217 0.21002435684204102
-0.5137255191802979 -0.17647063732147217 -0.2843012809753418
-0.30980390310287476 -0.17647063732147217 0.280118465423584
-0.29411762952804565 -0.17647063732147217 0.2750883102416992
-0.09019607305526733 -0.17647063732147217 -0.26621103286743164
-0.07450979948043823 -0.17647063732147217 -0.2657127380371094
-0.05882352590560913 -0.17647063732147217 -0.2662839889526367
-0.04313725233078003 -0.17647063732147217 -0.26609230041503906
-0.027450978755950928 -0.17647063732147217 -0.26630115509033203
-0.011764705181121826 -0.17647063732147217 -0.26624441146850586
0.003921627998352051 -0.17647063732147217 -0.26546382904052734
0.019607901573181152 -0.17647063732147217 -0.26398754119873047
0.035294175148010254 -0.17647063732147217 -0.26282691955566406
0.050980448722839355 -0.17647063732147217 -0.2611885070800781
0.06666672229766846 -0.17647063732147217 -0.2596163749694824
0.08235299587249756 -0.17647063732147217 -0.25804805755615234
0.09803926944732666 -0.17647063732147217 -0.25862789154052734
0.301960825920105 -0.17647063732147217 0.25650691986083984
0.3176470994949341 -0.17647063732147217 0.2609696388244629
0.5215686559677124 -0.17647063732147217 -0.3277568817138672
0.5372549295425415 -0.17647063732147217 -0.3346061706542969
0.615686297416687 -0.17647063732147217 0.16361522674560547
0.6313725709915161 -0.17647063732147217 0.16468334197998047
-0.686274528503418 -0.19215691089630127 0.19268512725830078
-0.6705882549285889 -0.19215691089630127 0.19625043869018555
-0.498039186000824 -0.19215691089630127 -0.29546260833740234
-0.29411762952804565 -0.19215691089630127 0.27394866943359375
0.301960825920105 -0.19215691089630127 0.255218505859375
0.5058823823928833 -0.19215691089630127 -0.33701133728027344
0.5215686559677124 -0.19215691089630127 -0.32672786712646484
0.615686297416687 -0.19215691089630127 0.15812015533447266
-0.6705882549285889 -0.20784318447113037 0.18716859817504883
-0.6549019813537598 -0.20784318447113037 0.1843280792236328
-0.498039186000824 -0.20784318447113037 -0.3067755699157715
-0.4823529124259949 -0.20784318447113037 -0.30594873428344727
-0.29411762952804565 -0.20784318447113037 0.2683887481689453
0.301960825920105 -0.20784318447113037 0.25005292892456055
0.4901961088180542 -0.20784318447113037 -0.3597564697265625
0.5058823823928833 -0.20784318447113037 -0.33214473724365234
0.5215686559677124 -0.20784318447113037 -0.3410005569458008
0.6000000238418579 -0.20784318447113037 0.14503908157348633
0.615686297416687 -0.20784318447113037 0.14757871627807617
-0.6549019813537598 -0.22352945804595947 0.17657470703125
-0.6392157077789307 -0.22352945804595947 0.17196369171142578
-0.4823529124259949 -0.22352945804595947 -0.31380414962768555
-0.46666663885116577 -0.22352945804595947 -0.3158607482910156
-0.27843135595321655 -0.22352945804595947 0.2603158950805664
0.2862745523452759 -0.22352945804595947 0.24256134033203125
0.4745098352432251 -0.22352945804595947 -0.3633136749267578
0.4901961088180542 -0.22352945804595947 -0.36602354049682617
0.5058823823928833 -0.22352945804595947 -0.33193016052246094
0.6000000238418579 -0.22352945804595947 0.14156484603881836
-0.6392157077789307 -0.23921573162078857 0.16602754592895508
-0.6235294342041016 -0.23921573162078857 0.15904903411865234
-0.46666663885116577 -0.23921573162078857 -0.3206195831298828
-0.45098036527633667 -0.23921573162078857 -0.323636531829834
-0.27843135595321655 -0.23921573162078857 0.25319337844848633
-0.26274508237838745 -0.23921573162078857 0.24675464630126953
0.2705882787704468 -0.23921573162078857 0.22856521606445312
0.2862745523452759 -0.23921573162078857 0.2389373779296875
0.458823561668396 -0.23921573162078857 -0.36791276931762695
0.4745098352432251 -0.23921573162078857 -0.36833810806274414
0.4901961088180542 -0.23921573162078857 -0.3402237892150879
0.5058823823928833 -0.23921573162078857 -0.3330721855163574
0.5843137502670288 -0.23921573162078857 0.13020086288452148
0.6000000238418579 -0.23921573162078857 0.13280487060546875
-0.6235294342041016 -0.2549020051956177 0.1563401222229004
-0.6078431606292725 -0.2549020051956177 0.14549732208251953
-0.45098036527633667 -0.2549020051956177 -0.3268766403198242
-0.43529409170150757 -0.2549020051956177 -0.33131837844848633
-0.26274508237838745 -0.2549020051956177 0.2443404197692871
0.2705882787704468 -0.2549020051956177 0.2306194305419922
0.4431372880935669 -0.2549020051956177 -0.37336015701293945
0.458823561668396 -0.2549020051956177 -0.37158203125
0.4901961088180542 -0.2549020051956177 -0.3331642150878906
0.5843137502670288 -0.2549020051956177 0.1273813247680664
-0.6078431606292725 -0.2705882787704468 0.14551210403442383
-0.43529409170150757 -0.2705882787704468 -0.3325924873352051
-0.41960781812667847 -0.2705882787704468 -0.33754396438598633
-0.24705880880355835 -0.2705882787704468 0.2357158660888672
0.2549020051956177 -0.2705882787704468 0.2218332290649414
0.4274510145187378 -0.2705882787704468 -0.37753915786743164
0.4431372880935669 -0.2705882787704468 -0.37621593475341797
0.4901961088180542 -0.2705882787704468 -0.32951927185058594
0.5686274766921997 -0.2705882787704468 0.11661434173583984
0.5843137502670288 -0.2705882787704468 0.11804866790771484
-0.5921568870544434 -0.2862745523452759 0.13534975051879883
-0.41960781812667847 -0.2862745523452759 -0.33864259719848633
-0.40392154455184937 -0.2862745523452759 -0.3482356071472168
-0.24705880880355835 -0.2862745523452759 0.22301959991455078
-0.23137253522872925 -0.2862745523452759 0.2286820411682129
0.23921573162078857 -0.2862745523452759 0.2147841453552246
0.2549020051956177 -0.2862745523452759 0.21553707122802734
0.4117647409439087 -0.2862745523452759 -0.38320350646972656
0.4274510145187378 -0.2862745523452759 -0.38267993927001953
0.4745098352432251 -0.2862745523452759 -0.33490943908691406
0.4901961088180542 -0.2862745523452759 -0.33002805709838867
0.5686274766921997 -0.2862745523452759 0.11251592636108398
-0.5764706134796143 -0.301960825920105 0.12760257720947266
-0.41960781812667847 -0.301960825920105 -0.36183977127075195
-0.40392154455184937 -0.301960825920105 -0.34589099884033203
-0.38823527097702026 -0.301960825920105 -0.3645505905151367
-0.37254899740219116 -0.301960825920105 -0.3730735778808594
-0.23137253522872925 -0.301960825920105 0.2179422378540039
-0.21568626165390015 -0.301960825920105 0.22483491897583008
