ply
format ascii 1.0
element vertex 797
property float x
property float y
property float z
end_header
0.2705882787704468 0.6392157077789307 0.42090797424316406
0.2862745523452759 0.6392157077789307 0.4241924285888672
0.301960825920105 0.6392157077789307 0.422760009765625
0.3176470994949341 0.6392157077789307 0.4203052520751953
0.3333333730697632 0.6392157077789307 0.4181084632873535
0.3490196466445923 0.6392157077789307 0.4135932922363281
0.6000000238418579 0.6392157077789307 0.25974130630493164
0.615686297416687 0.6392157077789307 0.26856565475463867
0.6313725709915161 0.6392157077789307 0.42453622817993164
0.20784318447113037 0.6235294342041016 0.433927059173584
0.22352945804595947 0.6235294342041016 0.4361443519592285
0.23921573162078857 0.6235294342041016 0.4347958564758301
0.2549020051956177 0.6235294342041016 0.4314570426940918
0.2705882787704468 0.6235294342041016 0.42812490463256836
0.2862745523452759 0.6235294342041016 0.4203457832336426
0.6000000238418579 0.6235294342041016 0.22972869873046875
0.615686297416687 0.6235294342041016 0.23700904846191406
0.6313725709915161 0.6235294342041016 0.42906999588012695
0.6470588445663452 0.6235294342041016 0.4269571304321289
0.14509809017181396 0.6078431606292725 0.44745397567749023
0.16078436374664307 0.6078431606292725 0.4481015205383301
0.17647063732147217 0.6078431606292725 0.4457077980041504
0.19215691089630127 0.6078431606292725 0.4426741600036621
0.20784318447113037 0.6078431606292725 0.43904972076416016
0.6000000238418579 0.6078431606292725 0.20248651504516602
0.615686297416687 0.6078431606292725 0.20502471923828125
0.6470588445663452 0.6078431606292725 0.4394035339355469
0.08235299587249756 0.5921568870544434 0.45778369903564453
0.09803926944732666 0.5921568870544434 0.45784568786621094
0.11372554302215576 0.5921568870544434 0.4564476013183594
0.12941181659698486 0.5921568870544434 0.453859806060791
0.14509809017181396 0.5921568870544434 0.4496030807495117
0.6000000238418579 0.5921568870544434 0.17489385604858398
0.615686297416687 0.5921568870544434 0.17238759994506836
0.6470588445663452 0.5921568870544434 0.44841670989990234
0.003921627998352051 0.5764706134796143 0.4635181427001953
0.019607901573181152 0.5764706134796143 0.46567869186401367
0.035294175148010254 0.5764706134796143 0.46451377868652344
0.050980448722839355 0.5764706134796143 0.4624137878417969
0.06666672229766846 0.5764706134796143 0.46016407012939453
0.08235299587249756 0.5764706134796143 0.45488977432250977
0.6000000238418579 0.5764706134796143 0.14647865295410156
0.615686297416687 0.5764706134796143 0.14267444610595703
0.6470588445663452 0.5764706134796143 0.4542546272277832
-0.05882352590560913 0.5607843399047852 0.4744892120361328
-0.04313725233078003 0.5607843399047852 0.4753704071044922
-0.027450978755950928 0.5607843399047852 0.4735569953918457
-0.011764705181121826 0.5607843399047852 0.47078514099121094
0.003921627998352051 0.5607843399047852 0.46689891815185547
0.6000000238418579 0.5607843399047852 0.11958122253417969
0.615686297416687 0.5607843399047852 0.1138148307800293
0.6627451181411743 0.5607843399047852 0.4657430648803711
-0.12156862020492554 0.545098066329956 0.4856605529785156
-0.10588234663009644 0.545098066329956 0.4853019714355469
-0.09019607305526733 0.545098066329956 0.48332738876342773
-0.07450979948043823 0.545098066329956 0.48076295852661133
-0.05882352590560913 0.545098066329956 0.47564077377319336
0.6000000238418579 0.545098066329956 0.09311342239379883
0.615686297416687 0.545098066329956 0.08674907684326172
0.6627451181411743 0.545098066329956 0.475801944732666
-0.19999998807907104 0.529411792755127 0.4924960136413574
-0.18431371450424194 0.529411792755127 0.4949960708618164
-0.16862744092941284 0.529411792755127 0.49459123611450195
-0.15294116735458374 0.529411792755127 0.49216604232788086
-0.13725489377975464 0.529411792755127 0.48938560485839844
-0.12156862020492554 0.529411792755127 0.4829416275024414
0.6000000238418579 0.529411792755127 0.06674385070800781
0.615686297416687 0.529411792755127 0.0624542236328125
0.6627451181411743 0.529411792755127 0.48360252380371094
-0.26274508237838745 0.5137255191802979 0.4873661994934082
-0.24705880880355835 0.5137255191802979 0.4920058250427246
-0.23137253522872925 0.5137255191802979 0.49504566192626953
-0.21568626165390015 0.5137255191802979 0.49660491943359375
-0.19999998807907104 0.5137255191802979 0.4954957962036133
0.6000000238418579 0.5137255191802979 0.04003620147705078
0.615686297416687 0.5137255191802979 0.03741455078125
0.6627451181411743 0.5137255191802979 0.4865889549255371
0.6784313917160034 0.5137255191802979 0.4949684143066406
-0.27843135595321655 0.498039186000824 0.48878955841064453
-0.26274508237838745 0.498039186000824 0.4827003479003906
0.6000000238418579 0.498039186000824 0.01469278335571289
0.615686297416687 0.498039186000824 0.013385295867919922
0.6784313917160034 0.498039186000824 0.5073685646057129
-0.27843135595321655 0.4823529124259949 0.49213552474975586
-0.26274508237838745 0.4823529124259949 0.4970512390136719
0.6000000238418579 0.4823529124259949 -0.009668350219726562
0.615686297416687 0.4823529124259949 -0.010348320007324219
0.6784313917160034 0.4823529124259949 0.5166049003601074
-0.27843135595321655 0.46666663885116577 0.4253721237182617
-0.26274508237838745 0.46666663885116577 0.5081501007080078
0.6000000238418579 0.46666663885116577 -0.03507041931152344
0.615686297416687 0.46666663885116577 -0.027350902557373047
0.6784313917160034 0.46666663885116577 0.5187077522277832
0.6941176652908325 0.46666663885116577 0.5256161689758301
-0.27843135595321655 0.45098036527633667 0.40043210983276367
-0.26274508237838745 0.45098036527633667 0.516533374786377
0.5215686559677124 0.45098036527633667 -0.04698371887207031
0.5372549295425415 0.45098036527633667 -0.04209470748901367
0.5529412031173706 0.45098036527633667 -0.04028749465942383
0.5686274766921997 0.45098036527633667 -0.04143333435058594
0.5843137502670288 0.45098036527633667 -0.04503679275512695
0.6000000238418579 0.45098036527633667 -0.05182933807373047
0.615686297416687 0.45098036527633667 -0.03284740447998047
0.6941176652908325 0.45098036527633667 0.5359201431274414
-0.27843135595321655 0.43529409170150757 0.37100982666015625
-0.26274508237838745 0.43529409170150757 0.5220208168029785
-0.24705880880355835 0.43529409170150757 0.5218706130981445
0.458823561668396 0.43529409170150757 -0.0380854606628418
0.4745098352432251 0.43529409170150757 -0.03688669204711914
0.4901961088180542 0.43529409170150757 -0.037786006927490234
0.5058823823928833 0.43529409170150757 -0.039031028747558594
0.5215686559677124 0.43529409170150757 -0.0404810905456543
0.5372549295425415 0.43529409170150757 -0.04424333572387695
0.615686297416687 0.43529409170150757 -0.030274391174316406
0.6941176652908325 0.43529409170150757 0.5430092811584473
-0.27843135595321655 0.41960781812667847 0.34577417373657227
-0.26274508237838745 0.41960781812667847 0.32460546493530273
-0.24705880880355835 0.41960781812667847 0.5348567962646484
0.3960784673690796 0.41960781812667847 -0.030420303344726562
0.4117647409439087 0.41960781812667847 -0.029881954193115234
0.4274510145187378 0.41960781812667847 -0.031003952026367188
0.4431372880935669 0.41960781812667847 -0.03237628936767578
0.458823561668396 0.41960781812667847 -0.03530168533325195
0.615686297416687 0.41960781812667847 -0.024114131927490234
0.6313725709915161 0.41960781812667847 -0.025545597076416016
0.6941176652908325 0.41960781812667847 0.5444560050964355
0.7098039388656616 0.41960781812667847 0.551905632019043
-0.27843135595321655 0.40392154455184937 0.31783151626586914
-0.24705880880355835 0.40392154455184937 0.5439138412475586
0.3333333730697632 0.40392154455184937 -0.023746490478515625
0.3490196466445923 0.40392154455184937 -0.024497032165527344
0.3647059202194214 0.40392154455184937 -0.025890350341796875
0.3803921937942505 0.40392154455184937 -0.027249813079833984
0.3960784673690796 0.40392154455184937 -0.030955791473388672
0.6313725709915161 0.40392154455184937 -0.00803375244140625
0.7098039388656616 0.40392154455184937 0.5622501373291016
-0.27843135595321655 0.38823527097702026 0.2896542549133301
-0.24705880880355835 0.38823527097702026 0.5517463684082031
0.2549020051956177 0.38823527097702026 -0.009869575500488281
0.2705882787704468 0.38823527097702026 -0.00890350341796875
0.2862745523452759 0.38823527097702026 -0.011387825012207031
0.301960825920105 0.38823527097702026 -0.015350818634033203
0.3176470994949341 0.38823527097702026 -0.020279884338378906
0.3333333730697632 0.38823527097702026 -0.027854442596435547
0.6313725709915161 0.38823527097702026 0.0061359405517578125
0.7098039388656616 0.38823527097702026 0.569511890411377
-0.27843135595321655 0.37254899740219116 0.26407480239868164
-0.24705880880355835 0.37254899740219116 0.5537919998168945
-0.23137253522872925 0.37254899740219116 0.5647602081298828
0.19215691089630127 0.37254899740219116 -0.0029773712158203125
0.20784318447113037 0.37254899740219116 0.00015878677368164062
0.22352945804595947 0.37254899740219116 -0.0007014274597167969
0.23921573162078857 0.37254899740219116 -0.0026941299438476562
0.2549020051956177 0.37254899740219116 -0.00699615478515625
0.2705882787704468 0.37254899740219116 -0.014021873474121094
0.6313725709915161 0.37254899740219116 0.017432212829589844
0.6470588445663452 0.37254899740219116 0.019076824188232422
0.7098039388656616 0.37254899740219116 0.5730667114257812
0.7254902124404907 0.37254899740219116 0.5797576904296875
-0.27843135595321655 0.35686272382736206 0.23820877075195312
-0.23137253522872925 0.35686272382736206 0.5771560668945312
0.16078436374664307 0.35686272382736206 0.0008478164672851562
0.17647063732147217 0.35686272382736206 -0.004131793975830078
0.19215691089630127 0.35686272382736206 -0.004774570465087891
0.6470588445663452 0.35686272382736206 0.035367488861083984
0.7254902124404907 0.35686272382736206 0.5930233001708984
-0.27843135595321655 0.34117645025253296 0.21377086639404297
-0.23137253522872925 0.34117645025253296 0.5860342979431152
0.16078436374664307 0.34117645025253296 0.013521671295166016
0.17647063732147217 0.34117645025253296 0.016987323760986328
0.6470588445663452 0.34117645025253296 0.04880666732788086
0.7254902124404907 0.34117645025253296 0.6052398681640625
-0.27843135595321655 0.32549017667770386 0.18910646438598633
-0.23137253522872925 0.32549017667770386 0.5900521278381348
-0.21568626165390015 0.32549017667770386 0.5980582237243652
0.16078436374664307 0.32549017667770386 -0.03430986404418945
0.17647063732147217 0.32549017667770386 0.03762388229370117
0.6470588445663452 0.32549017667770386 0.05771493911743164
0.6627451181411743 0.32549017667770386 0.5987396240234375
0.6784313917160034 0.32549017667770386 0.6014480590820312
0.6941176652908325 0.32549017667770386 0.6046333312988281
0.7098039388656616 0.32549017667770386 0.6058640480041504
0.7254902124404907 0.32549017667770386 0.6063761711120605
-0.27843135595321655 0.30980390310287476 0.16459894180297852
-0.21568626165390015 0.30980390310287476 0.6108465194702148
0.16078436374664307 0.30980390310287476 -0.04898643493652344
0.17647063732147217 0.30980390310287476 0.04716348648071289
0.6000000238418579 0.30980390310287476 0.6032314300537109
0.615686297416687 0.30980390310287476 0.6028547286987305
0.6313725709915161 0.30980390310287476 0.6008143424987793
0.6470588445663452 0.30980390310287476 0.5991835594177246
0.6627451181411743 0.30980390310287476 0.598048210144043
0.6784313917160034 0.30980390310287476 0.5850925445556641
0.7254902124404907 0.30980390310287476 0.5696010589599609
-0.27843135595321655 0.29411762952804565 0.14075231552124023
-0.21568626165390015 0.29411762952804565 0.6196713447570801
0.16078436374664307 0.29411762952804565 -0.06430959701538086
0.17647063732147217 0.29411762952804565 0.05283975601196289
0.19215691089630127 0.29411762952804565 0.060793399810791016
0.5372549295425415 0.29411762952804565 0.6243128776550293
0.5529412031173706 0.29411762952804565 0.6223959922790527
0.5686274766921997 0.29411762952804565 0.6184158325195312
0.5843137502670288 0.29411762952804565 0.6132850646972656
0.6000000238418579 0.29411762952804565 0.605989933013916
0.6627451181411743 0.29411762952804565 0.07841348648071289
0.7254902124404907 0.29411762952804565 0.543677806854248
0.7411764860153198 0.29411762952804565 0.5333161354064941
-0.27843135595321655 0.27843135595321655 0.11763477325439453
-0.21568626165390015 0.27843135595321655 0.6236929893493652
-0.19999998807907104 0.27843135595321655 0.6300292015075684
0.16078436374664307 0.27843135595321655 -0.07629156112670898
0.19215691089630127 0.27843135595321655 0.07776832580566406
0.458823561668396 0.27843135595321655 0.6320195198059082
0.4745098352432251 0.27843135595321655 0.6363320350646973
0.4901961088180542 0.27843135595321655 0.6365108489990234
0.5058823823928833 0.27843135595321655 0.6339178085327148
0.5215686559677124 0.27843135595321655 0.6305642127990723
0.5372549295425415 0.27843135595321655 0.6244144439697266
0.6627451181411743 0.27843135595321655 0.09165668487548828
0.6784313917160034 0.27843135595321655 0.08869361877441406
0.7254902124404907 0.27843135595321655 0.5161738395690918
0.7411764860153198 0.27843135595321655 0.5050764083862305
-0.27843135595321655 0.26274508237838745 0.09384822845458984
-0.19999998807907104 0.26274508237838745 0.6424155235290527
0.16078436374664307 0.26274508237838745 -0.08853960037231445
0.19215691089630127 0.26274508237838745 0.0941166877746582
0.3960784673690796 0.26274508237838745 0.644477367401123
0.4117647409439087 0.26274508237838745 0.6453495025634766
0.4274510145187378 0.26274508237838745 0.6434688568115234
0.4431372880935669 0.26274508237838745 0.6405072212219238
0.458823561668396 0.26274508237838745 0.6375384330749512
0.4745098352432251 0.26274508237838745 0.630772590637207
0.6784313917160034 0.26274508237838745 0.10404682159423828
0.7254902124404907 0.26274508237838745 0.4907693862915039
0.7411764860153198 0.26274508237838745 0.4807577133178711
-0.27843135595321655 0.24705880880355835 0.06927633285522461
-0.19999998807907104 0.24705880880355835 0.651885986328125
0.16078436374664307 0.24705880880355835 -0.1015157699584961
0.19215691089630127 0.24705880880355835 0.11213159561157227
0.20784318447113037 0.24705880880355835 0.11295461654663086
0.3333333730697632 0.24705880880355835 0.6521553993225098
0.3490196466445923 0.24705880880355835 0.6527233123779297
0.3647059202194214 0.24705880880355835 0.6510887145996094
0.3803921937942505 0.24705880880355835 0.6485953330993652
0.3960784673690796 0.24705880880355835 0.6445698738098145
0.6784313917160034 0.24705880880355835 0.11539411544799805
0.7254902124404907 0.24705880880355835 0.46543169021606445
0.7411764860153198 0.24705880880355835 0.45532846450805664
-0.27843135595321655 0.23137253522872925 0.04461526870727539
-0.19999998807907104 0.23137253522872925 0.6565990447998047
-0.18431371450424194 0.23137253522872925 0.6620998382568359
0.16078436374664307 0.23137253522872925 -0.11895227432250977
0.20784318447113037 0.23137253522872925 0.13216114044189453
0.2549020051956177 0.23137253522872925 0.6543745994567871
0.2705882787704468 0.23137253522872925 0.6589288711547852
0.2862745523452759 0.23137253522872925 0.6592612266540527
0.301960825920105 0.23137253522872925 0.6578383445739746
0.3176470994949341 0.23137253522872925 0.6559357643127441
0.3333333730697632 0.23137253522872925 0.6506552696228027
0.6784313917160034 0.23137253522872925 0.12543344497680664
0.6941176652908325 0.23137253522872925 0.12123775482177734
0.7254902124404907 0.23137253522872925 0.43886613845825195
-0.27843135595321655 0.21568626165390015 0.02092885971069336
-0.18431371450424194 0.21568626165390015 0.6750884056091309
0.16078436374664307 0.21568626165390015 -0.14606094360351562
0.19215691089630127 0.21568626165390015 0.6547760963439941
0.20784318447113037 0.21568626165390015 0.6624202728271484
0.22352945804595947 0.21568626165390015 0.6633133888244629
0.23921573162078857 0.21568626165390015 0.6608562469482422
0.2549020051956177 0.21568626165390015 0.6598353385925293
0.6941176652908325 0.21568626165390015 0.13915443420410156
0.7254902124404907 0.21568626165390015 0.4110736846923828
-0.27843135595321655 0.19999998807907104 -0.0025033950805664062
-0.18431371450424194 0.19999998807907104 0.6845893859863281
0.12941181659698486 0.19999998807907104 0.6639890670776367
0.14509809017181396 0.19999998807907104 0.6618947982788086
0.16078436374664307 0.19999998807907104 0.6607723236083984
0.17647063732147217 0.19999998807907104 0.659522533416748
0.19215691089630127 0.19999998807907104 0.6550407409667969
0.20784318447113037 0.19999998807907104 0.14364910125732422
0.22352945804595947 0.19999998807907104 0.1448354721069336
0.6941176652908325 0.19999998807907104 0.14971494674682617
0.7254902124404907 0.19999998807907104 0.38257503509521484
-0.27843135595321655 0.18431371450424194 -0.025986671447753906
-0.18431371450424194 0.18431371450424194 0.6898365020751953
-0.16862744092941284 0.18431371450424194 0.6936740875244141
0.050980448722839355 0.18431371450424194 0.6891293525695801
0.06666672229766846 0.18431371450424194 0.6891093254089355
0.08235299587249756 0.18431371450424194 0.6856784820556641
0.09803926944732666 0.18431371450424194 0.6798477172851562
0.11372554302215576 0.18431371450424194 0.6716995239257812
0.12941181659698486 0.18431371450424194 0.6579499244689941
0.16078436374664307 0.18431371450424194 -0.1998753547668457
0.22352945804595947 0.18431371450424194 0.16326522827148438
0.6941176652908325 0.18431371450424194 0.155975341796875
0.7254902124404907 0.18431371450424194 0.3565945625305176
-0.27843135595321655 0.16862744092941284 -0.05111551284790039
-0.16862744092941284 0.16862744092941284 0.7070512771606445
-0.011764705181121826 0.16862744092941284 0.7100415229797363
0.003921627998352051 0.16862744092941284 0.7085623741149902
0.019607901573181152 0.16862744092941284 0.7042422294616699
0.035294175148010254 0.16862744092941284 0.6990599632263184
0.050980448722839355 0.16862744092941284 0.6926631927490234
0.16078436374664307 0.16862744092941284 -0.22057867050170898
0.22352945804595947 0.16862744092941284 0.16995573043823242
0.6941176652908325 0.16862744092941284 0.1582202911376953
0.7098039388656616 0.16862744092941284 0.16769742965698242
0.7254902124404907 0.16862744092941284 0.3334989547729492
-0.27843135595321655 0.15294116735458374 -0.0766143798828125
-0.16862744092941284 0.15294116735458374 0.7170829772949219
-0.07450979948043823 0.15294116735458374 0.7269983291625977
-0.05882352590560913 0.15294116735458374 0.7252278327941895
-0.04313725233078003 0.15294116735458374 0.7215423583984375
-0.027450978755950928 0.15294116735458374 0.7167325019836426
-0.011764705181121826 0.15294116735458374 0.7094020843505859
0.16078436374664307 0.15294116735458374 -0.2537078857421875
0.22352945804595947 0.15294116735458374 0.17275285720825195
0.23921573162078857 0.15294116735458374 0.18245649337768555
0.7098039388656616 0.15294116735458374 0.17967844009399414
0.7254902124404907 0.15294116735458374 0.3117794990539551
-0.27843135595321655 0.13725489377975464 -0.10283613204956055
-0.16862744092941284 0.13725489377975464 0.7191810607910156
-0.15294116735458374 0.13725489377975464 0.7341980934143066
-0.13725489377975464 0.13725489377975464 0.7368698120117188
-0.12156862020492554 0.13725489377975464 0.7358651161193848
-0.10588234663009644 0.13725489377975464 0.7322773933410645
-0.09019607305526733 0.13725489377975464 0.727750301361084
-0.07450979948043823 0.13725489377975464 0.7186131477355957
0.16078436374664307 0.13725489377975464 -0.28461122512817383
0.23921573162078857 0.13725489377975464 0.1895146369934082
0.7098039388656616 0.13725489377975464 0.18700456619262695
0.7254902124404907 0.13725489377975464 0.29076719284057617
-0.27843135595321655 0.12156862020492554 -0.1290760040283203
-0.15294116735458374 0.12156862020492554 0.7303142547607422
-0.13725489377975464 0.12156862020492554 0.7282299995422363
0.16078436374664307 0.12156862020492554 -0.3148069381713867
0.23921573162078857 0.12156862020492554 0.19664669036865234
0.7098039388656616 0.12156862020492554 0.18833160400390625
0.7254902124404907 0.12156862020492554 0.2688484191894531
-0.27843135595321655 0.10588234663009644 -0.15571975708007812
-0.15294116735458374 0.10588234663009644 0.7001943588256836
0.16078436374664307 0.10588234663009644 -0.3458242416381836
0.23921573162078857 0.10588234663009644 0.19922590255737305
0.2549020051956177 0.10588234663009644 0.2073659896850586
0.7254902124404907 0.10588234663009644 0.2462458610534668
-0.27843135595321655 0.09019607305526733 -0.1817317008972168
-0.15294116735458374 0.09019607305526733 0.6715421676635742
0.16078436374664307 0.09019607305526733 -0.3750734329223633
0.2549020051956177 0.09019607305526733 0.21756887435913086
0.7098039388656616 0.09019607305526733 0.20986270904541016
0.7254902124404907 0.09019607305526733 0.22423315048217773
-0.27843135595321655 0.07450979948043823 -0.20670413970947266
-0.15294116735458374 0.07450979948043823 0.6446661949157715
0.16078436374664307 0.07450979948043823 -0.40427255630493164
0.2549020051956177 0.07450979948043823 0.2276144027709961
0.6470588445663452 0.07450979948043823 0.24744796752929688
0.6627451181411743 0.07450979948043823 0.24793624877929688
0.6784313917160034 0.07450979948043823 0.24498558044433594
0.6941176652908325 0.07450979948043823 0.23883056640625
0.7098039388656616 0.07450979948043823 0.23063182830810547
0.7254902124404907 0.07450979948043823 0.2155742645263672
-0.27843135595321655 0.05882352590560913 -0.23132944107055664
-0.15294116735458374 0.05882352590560913 0.6186447143554688
0.16078436374664307 0.05882352590560913 -0.4315190315246582
0.2549020051956177 0.05882352590560913 0.2348771095275879
0.2705882787704468 0.05882352590560913 0.2360372543334961
0.5843137502670288 0.05882352590560913 0.26044511795043945
0.6000000238418579 0.05882352590560913 0.2601494789123535
0.615686297416687 0.05882352590560913 0.2582426071166992
0.6313725709915161 0.05882352590560913 0.25568294525146484
0.6470588445663452 0.05882352590560913 0.2516036033630371
-0.27843135595321655 0.04313725233078003 -0.2557334899902344
-0.15294116735458374 0.04313725233078003 0.5922608375549316
0.16078436374664307 0.04313725233078003 -0.45647716522216797
0.2705882787704468 0.04313725233078003 0.25097131729125977
0.5058823823928833 0.04313725233078003 0.2703409194946289
0.5215686559677124 0.04313725233078003 0.27274465560913086
0.5372549295425415 0.04313725233078003 0.2713027000427246
0.5529412031173706 0.04313725233078003 0.2685432434082031
0.5686274766921997 0.04313725233078003 0.2659001350402832
0.5843137502670288 0.04313725233078003 0.2601490020751953
-0.27843135595321655 0.027450978755950928 -0.27817249298095703
-0.15294116735458374 0.027450978755950928 0.5662989616394043
0.16078436374664307 0.027450978755950928 -0.48058032989501953
0.2705882787704468 0.027450978755950928 0.26089954376220703
0.4431372880935669 0.027450978755950928 0.28308534622192383
0.458823561668396 0.027450978755950928 0.28371238708496094
0.4745098352432251 0.027450978755950928 0.28201818466186523
0.4901961088180542 0.027450978755950928 0.2793264389038086
0.5058823823928833 0.027450978755950928 0.27614879608154297
0.5215686559677124 0.027450978755950928 0.2679452896118164
-0.30980390310287476 0.011764705181121826 -0.30524778366088867
-0.29411762952804565 0.011764705181121826 -0.30300045013427734
-0.27843135595321655 0.011764705181121826 -0.2924022674560547
-0.15294116735458374 0.011764705181121826 0.5397834777832031
0.16078436374664307 0.011764705181121826 -0.5069737434387207
0.2705882787704468 0.011764705181121826 0.2669486999511719
0.2862745523452759 0.011764705181121826 0.2669539451599121
0.3803921937942505 0.011764705181121826 0.2921581268310547
0.3960784673690796 0.011764705181121826 0.2925453186035156
0.4117647409439087 0.011764705181121826 0.29124021530151367
0.4274510145187378 0.011764705181121826 0.2892584800720215
0.4431372880935669 0.011764705181121826 0.28510141372680664
-0.37254899740219116 -0.003921627998352051 -0.30534982681274414
-0.35686272382736206 -0.003921627998352051 -0.3037223815917969
-0.34117645025253296 -0.003921627998352051 -0.30395984649658203
-0.32549017667770386 -0.003921627998352051 -0.30425310134887695
-0.30980390310287476 -0.003921627998352051 -0.3046913146972656
-0.29411762952804565 -0.003921627998352051 -0.3070707321166992
-0.27843135595321655 -0.003921627998352051 -0.2933015823364258
-0.15294116735458374 -0.003921627998352051 0.5131487846374512
0.16078436374664307 -0.003921627998352051 -0.5344858169555664
0.2862745523452759 -0.003921627998352051 0.27579259872436523
0.301960825920105 -0.003921627998352051 0.2664337158203125
0.3176470994949341 -0.003921627998352051 0.29006385803222656
0.3333333730697632 -0.003921627998352051 0.2949237823486328
0.3490196466445923 -0.003921627998352051 0.2958049774169922
0.3647059202194214 -0.003921627998352051 0.2948293685913086
0.3803921937942505 -0.003921627998352051 0.29024267196655273
-0.43529409170150757 -0.019607901573181152 -0.29614877700805664
-0.41960781812667847 -0.019607901573181152 -0.2965388298034668
-0.40392154455184937 -0.019607901573181152 -0.29865360260009766
-0.38823527097702026 -0.019607901573181152 -0.3006553649902344
-0.37254899740219116 -0.019607901573181152 -0.3035879135131836
-0.27843135595321655 -0.019607901573181152 -0.2897310256958008
-0.26274508237838745 -0.019607901573181152 -0.28078269958496094
-0.15294116735458374 -0.019607901573181152 0.4878501892089844
0.16078436374664307 -0.019607901573181152 -0.5627589225769043
0.2862745523452759 -0.019607901573181152 0.2769947052001953
0.301960825920105 -0.019607901573181152 0.2853364944458008
0.3176470994949341 -0.019607901573181152 0.2883467674255371
-0.5137255191802979 -0.035294175148010254 -0.28631019592285156
-0.498039186000824 -0.035294175148010254 -0.2839202880859375
-0.4823529124259949 -0.035294175148010254 -0.28469038009643555
-0.46666663885116577 -0.035294175148010254 -0.28788089752197266
-0.45098036527633667 -0.035294175148010254 -0.2908444404602051
-0.43529409170150757 -0.035294175148010254 -0.2970128059387207
-0.26274508237838745 -0.035294175148010254 -0.26853227615356445
-0.15294116735458374 -0.035294175148010254 0.46314382553100586
0.16078436374664307 -0.035294175148010254 -0.5899186134338379
0.2862745523452759 -0.035294175148010254 0.2598142623901367
-0.5764706134796143 -0.050980448722839355 -0.27274656295776367
-0.5607843399047852 -0.050980448722839355 -0.27319955825805664
-0.545098066329956 -0.050980448722839355 -0.2752690315246582
-0.529411792755127 -0.050980448722839355 -0.27817821502685547
-0.5137255191802979 -0.050980448722839355 -0.2812528610229492
-0.498039186000824 -0.050980448722839355 -0.28795766830444336
-0.26274508237838745 -0.050980448722839355 -0.25987672805786133
-0.15294116735458374 -0.050980448722839355 0.4376993179321289
0.16078436374664307 -0.050980448722839355 -0.6175546646118164
0.2862745523452759 -0.050980448722839355 0.23494863510131836
-0.6392157077789307 -0.06666672229766846 -0.25943946838378906
-0.6235294342041016 -0.06666672229766846 -0.25916242599487305
-0.6078431606292725 -0.06666672229766846 -0.2611103057861328
-0.5921568870544434 -0.06666672229766846 -0.26500701904296875
-0.5764706134796143 -0.06666672229766846 -0.27101707458496094
-0.26274508237838745 -0.06666672229766846 -0.2547307014465332
-0.24705880880355835 -0.06666672229766846 -0.25153350830078125
-0.15294116735458374 -0.06666672229766846 0.4119744300842285
0.16078436374664307 -0.06666672229766846 -0.6445198059082031
0.2862745523452759 -0.06666672229766846 0.20711660385131836
-0.7176470756530762 -0.08235299587249756 -0.2584376335144043
-0.7019608020782471 -0.08235299587249756 -0.2541632652282715
-0.686274528503418 -0.08235299587249756 -0.25447702407836914
-0.6705882549285889 -0.08235299587249756 -0.2553277015686035
-0.6549019813537598 -0.08235299587249756 -0.2561469078063965
-0.6392157077789307 -0.08235299587249756 -0.2610316276550293
-0.24705880880355835 -0.08235299587249756 -0.23860979080200195
-0.15294116735458374 -0.08235299587249756 0.38712263107299805
0.16078436374664307 -0.08235299587249756 -0.6725525856018066
0.2862745523452759 -0.08235299587249756 0.17924165725708008
-0.7176470756530762 -0.09803926944732666 -0.2433938980102539
-0.7019608020782471 -0.09803926944732666 -0.2601332664489746
-0.24705880880355835 -0.09803926944732666 -0.2275829315185547
-0.15294116735458374 -0.09803926944732666 0.3616642951965332
0.16078436374664307 -0.09803926944732666 -0.7007060050964355
0.2862745523452759 -0.09803926944732666 0.15039491653442383
-0.7176470756530762 -0.11372554302215576 -0.2299947738647461
-0.24705880880355835 -0.11372554302215576 -0.2213892936706543
-0.23137253522872925 -0.11372554302215576 -0.21215534210205078
-0.15294116735458374 -0.11372554302215576 0.33571958541870117
0.16078436374664307 -0.11372554302215576 -0.7261433601379395
0.2862745523452759 -0.11372554302215576 0.12180566787719727
-0.7176470756530762 -0.12941181659698486 -0.22069549560546875
-0.7019608020782471 -0.12941181659698486 -0.21751928329467773
-0.23137253522872925 -0.12941181659698486 -0.20189809799194336
-0.15294116735458374 -0.12941181659698486 0.3105745315551758
0.14509809017181396 -0.12941181659698486 -0.7574577331542969
0.16078436374664307 -0.12941181659698486 -0.7496280670166016
0.2862745523452759 -0.12941181659698486 0.09256172180175781
-0.7176470756530762 -0.14509809017181396 -0.32166576385498047
-0.7019608020782471 -0.14509809017181396 -0.2003469467163086
-0.23137253522872925 -0.14509809017181396 -0.19623374938964844
-0.15294116735458374 -0.14509809017181396 0.2863273620605469
0.08235299587249756 -0.14509809017181396 -0.7490496635437012
0.09803926944732666 -0.14509809017181396 -0.7515063285827637
0.11372554302215576 -0.14509809017181396 -0.7553629875183105
0.12941181659698486 -0.14509809017181396 -0.7601718902587891
0.14509809017181396 -0.14509809017181396 -0.7652630805969238
0.16078436374664307 -0.14509809017181396 -0.7576146125793457
0.17647063732147217 -0.14509809017181396 -0.7609710693359375
0.2862745523452759 -0.14509809017181396 0.06357145309448242
-0.7176470756530762 -0.16078436374664307 -0.3430485725402832
-0.7019608020782471 -0.16078436374664307 -0.18491029739379883
-0.23137253522872925 -0.16078436374664307 -0.19305038452148438
-0.21568626165390015 -0.16078436374664307 -0.1872549057006836
-0.15294116735458374 -0.16078436374664307 0.2627873420715332
0.019607901573181152 -0.16078436374664307 -0.7351818084716797
0.035294175148010254 -0.16078436374664307 -0.7354083061218262
0.050980448722839355 -0.16078436374664307 -0.7374186515808105
0.06666672229766846 -0.16078436374664307 -0.740605354309082
0.08235299587249756 -0.16078436374664307 -0.7466845512390137
0.17647063732147217 -0.16078436374664307 -0.7517004013061523
0.2862745523452759 -0.16078436374664307 0.0339655876159668
-0.7176470756530762 -0.17647063732147217 -0.3654055595397949
-0.7019608020782471 -0.17647063732147217 -0.1760845184326172
-0.686274528503418 -0.17647063732147217 -0.17656660079956055
-0.21568626165390015 -0.17647063732147217 -0.17758655548095703
-0.15294116735458374 -0.17647063732147217 0.2389993667602539
-0.04313725233078003 -0.17647063732147217 -0.7301025390625
-0.027450978755950928 -0.17647063732147217 -0.728543758392334
-0.011764705181121826 -0.17647063732147217 -0.730048656463623
0.003921627998352051 -0.17647063732147217 -0.731389045715332
0.019607901573181152 -0.17647063732147217 -0.7346205711364746
0.17647063732147217 -0.17647063732147217 -0.7454404830932617
0.2862745523452759 -0.17647063732147217 0.006505012512207031
-0.7176470756530762 -0.19215691089630127 -0.39146995544433594
-0.686274528503418 -0.19215691089630127 -0.15887689590454102
-0.21568626165390015 -0.19215691089630127 -0.16761159896850586
-0.15294116735458374 -0.19215691089630127 0.21756792068481445
-0.12156862020492554 -0.19215691089630127 -0.7203969955444336
-0.10588234663009644 -0.19215691089630127 -0.7255959510803223
-0.09019607305526733 -0.19215691089630127 -0.7281856536865234
-0.07450979948043823 -0.19215691089630127 -0.7308740615844727
-0.05882352590560913 -0.19215691089630127 -0.7297172546386719
-0.04313725233078003 -0.19215691089630127 -0.7304191589355469
0.17647063732147217 -0.19215691089630127 -0.7434659004211426
0.19215691089630127 -0.19215691089630127 -0.7376856803894043
0.2862745523452759 -0.19215691089630127 -0.020253658294677734
-0.7176470756530762 -0.20784318447113037 -0.4185914993286133
-0.686274528503418 -0.20784318447113037 -0.14441871643066406
-0.21568626165390015 -0.20784318447113037 -0.1526474952697754
-0.19999998807907104 -0.20784318447113037 -0.15125656127929688
-0.18431371450424194 -0.20784318447113037 -0.6858749389648438
-0.16862744092941284 -0.20784318447113037 -0.6843051910400391
-0.15294116735458374 -0.20784318447113037 0.19708538055419922
-0.13725489377975464 -0.20784318447113037 -0.7170648574829102
-0.12156862020492554 -0.20784318447113037 -0.7219204902648926
0.19215691089630127 -0.20784318447113037 -0.7285394668579102
0.2862745523452759 -0.20784318447113037 -0.0469365119934082
-0.7176470756530762 -0.22352945804595947 -0.4466209411621094
-0.686274528503418 -0.22352945804595947 -0.13557052612304688
-0.24705880880355835 -0.22352945804595947 -0.7210597991943359
-0.23137253522872925 -0.22352945804595947 -0.7108469009399414
-0.21568626165390015 -0.22352945804595947 -0.7101564407348633
-0.19999998807907104 -0.22352945804595947 -0.1322317123413086
-0.18431371450424194 -0.22352945804595947 -0.6770853996276855
-0.15294116735458374 -0.22352945804595947 0.18127822875976562
0.19215691089630127 -0.22352945804595947 -0.7214937210083008
0.2862745523452759 -0.22352945804595947 -0.07538080215454102
-0.7176470756530762 -0.23921573162078857 -0.4765176773071289
-0.686274528503418 -0.23921573162078857 -0.13032293319702148
-0.6705882549285889 -0.23921573162078857 -0.11733102798461914
-0.32549017667770386 -0.23921573162078857 -0.7242331504821777
-0.30980390310287476 -0.23921573162078857 -0.7243924140930176
-0.29411762952804565 -0.23921573162078857 -0.7251367568969727
-0.27843135595321655 -0.23921573162078857 -0.7252931594848633
-0.26274508237838745 -0.23921573162078857 -0.7258586883544922
-0.24705880880355835 -0.23921573162078857 -0.7227911949157715
-0.19999998807907104 -0.23921573162078857 -0.1265416145324707
-0.15294116735458374 -0.23921573162078857 0.1605224609375
0.19215691089630127 -0.23921573162078857 -0.7162671089172363
0.20784318447113037 -0.23921573162078857 -0.7110614776611328
0.2862745523452759 -0.23921573162078857 -0.10249996185302734
-0.7333333492279053 -0.2549020051956177 -0.5093784332275391
-0.7176470756530762 -0.2549020051956177 -0.50738525390625
-0.6705882549285889 -0.2549020051956177 -0.10282421112060547
-0.38823527097702026 -0.2549020051956177 -0.7198262214660645
-0.37254899740219116 -0.2549020051956177 -0.7197623252868652
-0.35686272382736206 -0.2549020051956177 -0.7201046943664551
-0.34117645025253296 -0.2549020051956177 -0.7209410667419434
-0.32549017667770386 -0.2549020051956177 -0.722348690032959
-0.19999998807907104 -0.2549020051956177 -0.12525701522827148
-0.18431371450424194 -0.2549020051956177 -0.12502336502075195
-0.15294116735458374 -0.2549020051956177 0.1378164291381836
0.20784318447113037 -0.2549020051956177 -0.6997179985046387
0.2862745523452759 -0.2549020051956177 -0.1281123161315918
-0.7333333492279053 -0.2705882787704468 -0.5374336242675781
-0.7176470756530762 -0.2705882787704468 -0.5383167266845703
-0.6705882549285889 -0.2705882787704468 -0.09245538711547852
-0.46666663885116577 -0.2705882787704468 -0.704866886138916
-0.45098036527633667 -0.2705882787704468 -0.7051048278808594
-0.43529409170150757 -0.2705882787704468 -0.7070693969726562
-0.41960781812667847 -0.2705882787704468 -0.7102880477905273
-0.40392154455184937 -0.2705882787704468 -0.7139649391174316
-0.38823527097702026 -0.2705882787704468 -0.7185587882995605
-0.18431371450424194 -0.2705882787704468 -0.10857057571411133
-0.15294116735458374 -0.2705882787704468 0.1157984733581543
0.20784318447113037 -0.2705882787704468 -0.6927909851074219
0.2862745523452759 -0.2705882787704468 -0.15286874771118164
-0.7333333492279053 -0.2862745523452759 -0.5639691352844238
-0.7176470756530762 -0.2862745523452759 -0.5689430236816406
-0.6705882549285889 -0.2862745523452759 -0.08818483352661133
-0.6549019813537598 -0.2862745523452759 -0.07783842086791992
-0.529411792755127 -0.2862745523452759 -0.6936831474304199
-0.5137255191802979 -0.2862745523452759 -0.6938638687133789
-0.498039186000824 -0.2862745523452759 -0.6951174736022949
-0.4823529124259949 -0.2862745523452759 -0.6976122856140137
-0.46666663885116577 -0.2862745523452759 -0.7016749382019043
-0.45098036527633667 -0.2862745523452759 -0.7073931694030762
-0.18431371450424194 -0.2862745523452759 -0.09579849243164062
-0.15294116735458374 -0.2862745523452759 0.09440183639526367
0.20784318447113037 -0.2862745523452759 -0.6877899169921875
0.22352945804595947 -0.2862745523452759 -0.6851048469543457
0.2862745523452759 -0.2862745523452759 -0.17876005172729492
-0.7333333492279053 -0.301960825920105 -0.5924491882324219
-0.7176470756530762 -0.301960825920105 -0.5990567207336426
-0.6549019813537598 -0.301960825920105 -0.06515169143676758
-0.5921568870544434 -0.301960825920105 -0.6816105842590332
-0.5764706134796143 -0.301960825920105 -0.6812663078308105
-0.5607843399047852 -0.301960825920105 -0.6816201210021973
-0.545098066329956 -0.301960825920105 -0.6843175888061523
-0.529411792755127 -0.301960825920105 -0.6898975372314453
-0.18431371450424194 -0.301960825920105 -0.08419132232666016
-0.16862744092941284 -0.301960825920105 -0.06540870666503906
-0.15294116735458374 -0.301960825920105 0.07221412658691406
0.22352945804595947 -0.301960825920105 -0.6742773056030273
0.2862745523452759 -0.301960825920105 -0.20435142517089844
-0.7176470756530762 -0.3176470994949341 -0.6249198913574219
-0.6705882549285889 -0.3176470994949341 -0.656674861907959
-0.6549019813537598 -0.3176470994949341 -0.054970741271972656
-0.6392157077789307 -0.3176470994949341 -0.6499342918395996
-0.6235294342041016 -0.3176470994949341 -0.6605701446533203
-0.6078431606292725 -0.3176470994949341 -0.6698369979858398
-0.5921568870544434 -0.3176470994949341 -0.6782846450805664
-0.16862744092941284 -0.3176470994949341 -0.05577373504638672
-0.15294116735458374 -0.3176470994949341 0.05057382583618164
0.22352945804595947 -0.3176470994949341 -0.6657347679138184
0.2862745523452759 -0.3176470994949341 -0.22940874099731445
-0.7176470756530762 -0.3333333730697632 -0.6399831771850586
-0.7019608020782471 -0.3333333730697632 -0.6534476280212402
-0.686274528503418 -0.3333333730697632 -0.6554803848266602
-0.6705882549285889 -0.3333333730697632 -0.6553888320922852
-0.6549019813537598 -0.3333333730697632 -0.06730270385742188
-0.6392157077789307 -0.3333333730697632 -0.03377246856689453
-0.16862744092941284 -0.3333333730697632 -0.046085357666015625
-0.15294116735458374 -0.3333333730697632 0.028983592987060547
0.22352945804595947 -0.3333333730697632 -0.6593470573425293
0.23921573162078857 -0.3333333730697632 -0.6579537391662598
0.2862745523452759 -0.3333333730697632 -0.2541379928588867
-0.7176470756530762 -0.3490196466445923 -0.6425294876098633
-0.6392157077789307 -0.3490196466445923 -0.02226543426513672
-0.16862744092941284 -0.3490196466445923 -0.03407001495361328
-0.15294116735458374 -0.3490196466445923 0.009867668151855469
0.23921573162078857 -0.3490196466445923 -0.6448202133178711
0.2862745523452759 -0.3490196466445923 -0.27941322326660156
-0.7176470756530762 -0.3647059202194214 -0.6372513771057129
-0.6392157077789307 -0.3647059202194214 -0.011950016021728516
-0.18431371450424194 -0.3647059202194214 0.0015668869018554688
-0.16862744092941284 -0.3647059202194214 -0.0011882781982421875
-0.15294116735458374 -0.3647059202194214 -0.002482891082763672
0.23921573162078857 -0.3647059202194214 -0.6347575187683105
0.2862745523452759 -0.3647059202194214 -0.3041210174560547
-0.7176470756530762 -0.3803921937942505 -0.631096363067627
-0.7019608020782471 -0.3803921937942505 -0.6258769035339355
-0.6392157077789307 -0.3803921937942505 -0.008786678314208984
-0.6235294342041016 -0.3803921937942505 -0.0011439323425292969
-0.26274508237838745 -0.3803921937942505 0.012616634368896484
-0.24705880880355835 -0.3803921937942505 0.015033245086669922
-0.23137253522872925 -0.3803921937942505 0.01444387435913086
-0.21568626165390015 -0.3803921937942505 0.01193857192993164
-0.19999998807907104 -0.3803921937942505 0.007921695709228516
-0.18431371450424194 -0.3803921937942505 -0.00015878677368164062
0.23921573162078857 -0.3803921937942505 -0.6287598609924316
0.2549020051956177 -0.3803921937942505 -0.6244277954101562
0.2862745523452759 -0.3803921937942505 -0.3278522491455078
-0.7019608020782471 -0.3960784673690796 -0.6129393577575684
-0.6235294342041016 -0.3960784673690796 0.00885629653930664
-0.32549017667770386 -0.3960784673690796 0.01877593994140625
-0.30980390310287476 -0.3960784673690796 0.02087879180908203
-0.29411762952804565 -0.3960784673690796 0.02054738998413086
-0.27843135595321655 -0.3960784673690796 0.019031524658203125
-0.26274508237838745 -0.3960784673690796 0.01638936996459961
-0.24705880880355835 -0.3960784673690796 0.009882450103759766
0.2549020051956177 -0.3960784673690796 -0.6125974655151367
0.2862745523452759 -0.3960784673690796 -0.3520998954772949
-0.7019608020782471 -0.4117647409439087 -0.6046261787414551
-0.6235294342041016 -0.4117647409439087 0.0157470703125
-0.38823527097702026 -0.4117647409439087 0.027167320251464844
-0.37254899740219116 -0.4117647409439087 0.027794361114501953
-0.35686272382736206 -0.4117647409439087 0.0264434814453125
-0.34117645025253296 -0.4117647409439087 0.02459430694580078
-0.32549017667770386 -0.4117647409439087 0.0213623046875
0.2549020051956177 -0.4117647409439087 -0.6040740013122559
0.2862745523452759 -0.4117647409439087 -0.3781394958496094
-0.7019608020782471 -0.4274510145187378 -0.5990505218505859
-0.686274528503418 -0.4274510145187378 -0.5942158699035645
-0.6235294342041016 -0.4274510145187378 0.01777935028076172
-0.6078431606292725 -0.4274510145187378 0.026214122772216797
-0.45098036527633667 -0.4274510145187378 0.03980064392089844
-0.43529409170150757 -0.4274510145187378 0.039450645446777344
-0.41960781812667847 -0.4274510145187378 0.036820411682128906
-0.40392154455184937 -0.4274510145187378 0.03361177444458008
-0.38823527097702026 -0.4274510145187378 0.02850961685180664
0.2549020051956177 -0.4274510145187378 -0.5991768836975098
0.2705882787704468 -0.4274510145187378 -0.5932559967041016
0.2862745523452759 -0.4274510145187378 -0.4039926528930664
-0.686274528503418 -0.4431372880935669 -0.5830540657043457
-0.6078431606292725 -0.4431372880935669 0.03748035430908203
-0.529411792755127 -0.4431372880935669 0.04854774475097656
-0.5137255191802979 -0.4431372880935669 0.05277585983276367
-0.498039186000824 -0.4431372880935669 0.05153226852416992
-0.4823529124259949 -0.4431372880935669 0.04880189895629883
-0.46666663885116577 -0.4431372880935669 0.04575920104980469
-0.45098036527633667 -0.4431372880935669 0.03973197937011719
0.2549020051956177 -0.4431372880935669 -0.5944051742553711
0.2705882787704468 -0.4431372880935669 -0.5813274383544922
0.2862745523452759 -0.4431372880935669 -0.42788219451904297
-0.686274528503418 -0.458823561668396 -0.5735902786254883
-0.6078431606292725 -0.458823561668396 0.04188060760498047
-0.5921568870544434 -0.458823561668396 0.04955244064331055
-0.5764706134796143 -0.458823561668396 0.05338239669799805
-0.5607843399047852 -0.458823561668396 0.05651235580444336
-0.545098066329956 -0.458823561668396 0.05625772476196289
-0.529411792755127 -0.458823561668396 0.05443763732910156
-0.5137255191802979 -0.458823561668396 0.047652244567871094
0.2705882787704468 -0.458823561668396 -0.5709800720214844
0.2862745523452759 -0.458823561668396 -0.44997596740722656
-0.686274528503418 -0.4745098352432251 -0.5674901008605957
-0.6705882549285889 -0.4745098352432251 -0.5661110877990723
-0.6078431606292725 -0.4745098352432251 0.032361507415771484
-0.5921568870544434 -0.4745098352432251 0.044370174407958984
0.2705882787704468 -0.4745098352432251 -0.5682601928710938
0.2862745523452759 -0.4745098352432251 -0.4766545295715332
-0.6705882549285889 -0.4901961088180542 -0.554349422454834
-0.6078431606292725 -0.4901961088180542 0.009127140045166016
-0.5921568870544434 -0.4901961088180542 0.0077152252197265625
0.2705882787704468 -0.4901961088180542 -0.5617480278015137
0.2862745523452759 -0.4901961088180542 -0.5037903785705566
-0.6705882549285889 -0.5058823823928833 -0.5464048385620117
-0.6078431606292725 -0.5058823823928833 -0.017905712127685547
-0.5921568870544434 -0.5058823823928833 -0.02198505401611328
0.2705882787704468 -0.5058823823928833 -0.5483951568603516
0.2862745523452759 -0.5058823823928833 -0.5279178619384766
-0.6705882549285889 -0.5215686559677124 -0.5407571792602539
-0.6549019813537598 -0.5215686559677124 -0.5389509201049805
-0.6078431606292725 -0.5215686559677124 -0.04481363296508789
-0.5921568870544434 -0.5215686559677124 -0.04804706573486328
0.20784318447113037 -0.5215686559677124 -0.5201373100280762
0.22352945804595947 -0.5215686559677124 -0.520169734954834
0.23921573162078857 -0.5215686559677124 -0.5232810974121094
0.2549020051956177 -0.5215686559677124 -0.5300698280334473
0.2705882787704468 -0.5215686559677124 -0.539055347442627
-0.6549019813537598 -0.5372549295425415 -0.5263419151306152
-0.6078431606292725 -0.5372549295425415 -0.07292747497558594
-0.5921568870544434 -0.5372549295425415 -0.07355356216430664
0.12941181659698486 -0.5372549295425415 -0.5131640434265137
0.14509809017181396 -0.5372549295425415 -0.5123476982116699
0.16078436374664307 -0.5372549295425415 -0.5138530731201172
0.17647063732147217 -0.5372549295425415 -0.5157661437988281
0.19215691089630127 -0.5372549295425415 -0.5178813934326172
0.20784318447113037 -0.5372549295425415 -0.5217862129211426
-0.6549019813537598 -0.5529412031173706 -0.5162463188171387
-0.6078431606292725 -0.5529412031173706 -0.10156536102294922
-0.5921568870544434 -0.5529412031173706 -0.09991693496704102
0.06666672229766846 -0.5529412031173706 -0.49858570098876953
0.08235299587249756 -0.5529412031173706 -0.4989924430847168
0.09803926944732666 -0.5529412031173706 -0.5016989707946777
0.11372554302215576 -0.5529412031173706 -0.5048813819885254
0.12941181659698486 -0.5529412031173706 -0.508509635925293
-0.6549019813537598 -0.5686274766921997 -0.510502815246582
-0.6078431606292725 -0.5686274766921997 -0.13089418411254883
-0.5921568870544434 -0.5686274766921997 -0.12644624710083008
0.003921627998352051 -0.5686274766921997 -0.4852938652038574
0.019607901573181152 -0.5686274766921997 -0.4859886169433594
0.035294175148010254 -0.5686274766921997 -0.4889674186706543
0.050980448722839355 -0.5686274766921997 -0.4923129081726074
0.06666672229766846 -0.5686274766921997 -0.49784183502197266
-0.6392157077789307 -0.5843137502670288 -0.4983077049255371
-0.6078431606292725 -0.5843137502670288 -0.15807771682739258
-0.5921568870544434 -0.5843137502670288 -0.15421772003173828
-0.07450979948043823 -0.5843137502670288 -0.47060060501098633
-0.05882352590560913 -0.5843137502670288 -0.4705944061279297
-0.04313725233078003 -0.5843137502670288 -0.4733710289001465
-0.027450978755950928 -0.5843137502670288 -0.4773902893066406
-0.011764705181121826 -0.5843137502670288 -0.48140764236450195
0.003921627998352051 -0.5843137502670288 -0.4870781898498535
-0.6392157077789307 -0.6000000238418579 -0.4884676933288574
-0.6078431606292725 -0.6000000238418579 -0.1844644546508789
-0.5921568870544434 -0.6000000238418579 -0.1820998191833496
-0.13725489377975464 -0.6000000238418579 -0.45988988876342773
-0.12156862020492554 -0.6000000238418579 -0.459348201751709
-0.10588234663009644 -0.6000000238418579 -0.4611854553222656
-0.09019607305526733 -0.6000000238418579 -0.46433353424072266
-0.07450979948043823 -0.6000000238418579 -0.46756792068481445
-0.6392157077789307 -0.615686297416687 -0.4803767204284668
-0.6078431606292725 -0.615686297416687 -0.21096515655517578
