ply
format ascii 1.0
element vertex 800
property float x
property float y
property float z
end_header
0.6470588445663452 0.529411792755127 -0.03313589096069336
0.6627451181411743 0.529411792755127 -0.0540008544921875
0.7411764860153198 0.529411792755127 -0.21986627578735352
0.7882353067398071 0.529411792755127 -0.0469517707824707
-0.6705882549285889 0.5137255191802979 -0.3555607795715332
-0.6235294342041016 0.5137255191802979 -0.15823984146118164
0.6470588445663452 0.5137255191802979 -0.03804636001586914
0.6627451181411743 0.5137255191802979 -0.04123401641845703
0.7254902124404907 0.5137255191802979 -0.24817180633544922
0.7411764860153198 0.5137255191802979 -0.24929380416870117
0.7882353067398071 0.5137255191802979 -0.039459228515625
-0.686274528503418 0.498039186000824 -0.39127683639526367
-0.6235294342041016 0.498039186000824 -0.1756305694580078
0.6470588445663452 0.498039186000824 -0.03870725631713867
0.6627451181411743 0.498039186000824 -0.0368804931640625
0.7254902124404907 0.498039186000824 -0.27481937408447266
0.7882353067398071 0.498039186000824 -0.03149700164794922
-0.686274528503418 0.4823529124259949 -0.4063863754272461
-0.6392157077789307 0.4823529124259949 -0.20326662063598633
-0.6235294342041016 0.4823529124259949 -0.2054905891418457
0.6313725709915161 0.4823529124259949 -0.1214900016784668
0.6470588445663452 0.4823529124259949 -0.036858558654785156
0.6627451181411743 0.4823529124259949 -0.03549480438232422
0.7098039388656616 0.4823529124259949 -0.3029489517211914
0.7254902124404907 0.4823529124259949 -0.31002140045166016
0.7882353067398071 0.4823529124259949 -0.022971630096435547
-0.7019608020782471 0.46666663885116577 -0.4394245147705078
-0.686274528503418 0.46666663885116577 -0.42693471908569336
-0.6392157077789307 0.46666663885116577 -0.22003173828125
0.6313725709915161 0.46666663885116577 -0.13123369216918945
0.6470588445663452 0.46666663885116577 -0.03343772888183594
0.6627451181411743 0.46666663885116577 -0.03357648849487305
0.7098039388656616 0.46666663885116577 -0.3324241638183594
0.7882353067398071 0.46666663885116577 -0.014887332916259766
-0.7019608020782471 0.45098036527633667 -0.4532918930053711
-0.6549019813537598 0.45098036527633667 -0.2520112991333008
-0.6392157077789307 0.45098036527633667 -0.2490997314453125
0.615686297416687 0.45098036527633667 -0.1778278350830078
0.6470588445663452 0.45098036527633667 -0.027758121490478516
0.6627451181411743 0.45098036527633667 -0.029056072235107422
0.6941176652908325 0.45098036527633667 -0.360288143157959
0.7098039388656616 0.45098036527633667 -0.3616213798522949
0.7882353067398071 0.45098036527633667 -0.006911754608154297
-0.7176470756530762 0.43529409170150757 -0.4892721176147461
-0.7019608020782471 0.43529409170150757 -0.4744453430175781
-0.6549019813537598 0.43529409170150757 -0.2695274353027344
0.615686297416687 0.43529409170150757 -0.1983017921447754
0.6470588445663452 0.43529409170150757 -0.021631717681884766
0.6627451181411743 0.43529409170150757 -0.02111530303955078
0.6941176652908325 0.43529409170150757 -0.3815779685974121
0.7882353067398071 0.43529409170150757 0.0016908645629882812
-0.7176470756530762 0.41960781812667847 -0.5037064552307129
-0.6705882549285889 0.41960781812667847 -0.3026256561279297
-0.6549019813537598 0.41960781812667847 -0.2987174987792969
0.6000000238418579 0.41960781812667847 -0.24672555923461914
0.6470588445663452 0.41960781812667847 -0.013740062713623047
0.6627451181411743 0.41960781812667847 -0.013832569122314453
0.6784313917160034 0.41960781812667847 -0.4110126495361328
0.6941176652908325 0.41960781812667847 -0.4016866683959961
0.7882353067398071 0.41960781812667847 0.010933399200439453
-0.7333333492279053 0.40392154455184937 -0.5442137718200684
-0.7176470756530762 0.40392154455184937 -0.5263948440551758
-0.6705882549285889 0.40392154455184937 -0.3183765411376953
0.6000000238418579 0.40392154455184937 -0.2696352005004883
0.6470588445663452 0.40392154455184937 -0.0072002410888671875
0.6627451181411743 0.40392154455184937 -0.01057291030883789
0.6784313917160034 0.40392154455184937 -0.43100547790527344
0.7882353067398071 0.40392154455184937 0.01924610137939453
-0.7333333492279053 0.38823527097702026 -0.5588517189025879
-0.686274528503418 0.38823527097702026 -0.34985828399658203
-0.6705882549285889 0.38823527097702026 -0.34184980392456055
0.5843137502670288 0.38823527097702026 -0.3107929229736328
0.6470588445663452 0.38823527097702026 -0.00153350830078125
0.6627451181411743 0.38823527097702026 -0.011194705963134766
0.6784313917160034 0.38823527097702026 -0.45383739471435547
0.7882353067398071 0.38823527097702026 0.02735280990600586
-0.7490196228027344 0.37254899740219116 -0.6063723564147949
-0.7333333492279053 0.37254899740219116 -0.5809416770935059
-0.686274528503418 0.37254899740219116 -0.3630490303039551
0.5843137502670288 0.37254899740219116 -0.3294391632080078
0.6470588445663452 0.37254899740219116 0.005062580108642578
0.6627451181411743 0.37254899740219116 -0.29848289489746094
0.7882353067398071 0.37254899740219116 0.0356602668762207
-0.7490196228027344 0.35686272382736206 -0.619664192199707
-0.7019608020782471 0.35686272382736206 -0.39993762969970703
-0.686274528503418 0.35686272382736206 -0.3864150047302246
0.5686274766921997 0.35686272382736206 -0.3623509407043457
0.5843137502670288 0.35686272382736206 -0.3578367233276367
0.6470588445663452 0.35686272382736206 0.015085697174072266
0.6627451181411743 0.35686272382736206 -0.13144779205322266
0.7882353067398071 0.35686272382736206 0.043182373046875
-0.7647058963775635 0.34117645025253296 -0.6554322242736816
-0.7490196228027344 0.34117645025253296 -0.6380343437194824
-0.7019608020782471 0.34117645025253296 -0.4123988151550293
0.5686274766921997 0.34117645025253296 -0.37930774688720703
0.6470588445663452 0.34117645025253296 0.02504587173461914
0.6627451181411743 0.34117645025253296 -0.030017375946044922
0.7882353067398071 0.34117645025253296 0.05112266540527344
-0.7647058963775635 0.32549017667770386 -0.6635527610778809
-0.7176470756530762 0.32549017667770386 -0.45360326766967773
-0.7019608020782471 0.32549017667770386 -0.43630409240722656
0.5529412031173706 0.32549017667770386 -0.41011571884155273
0.5686274766921997 0.32549017667770386 -0.40346717834472656
0.6313725709915161 0.32549017667770386 -0.5971503257751465
0.6470588445663452 0.32549017667770386 0.034299373626708984
0.6627451181411743 0.32549017667770386 0.010534286499023438
0.7882353067398071 0.32549017667770386 0.05988359451293945
-0.7803921699523926 0.30980390310287476 -0.6895718574523926
-0.7647058963775635 0.30980390310287476 -0.6739048957824707
-0.7490196228027344 0.30980390310287476 -0.6919002532958984
-0.7333333492279053 0.30980390310287476 -0.7098469734191895
-0.7176470756530762 0.30980390310287476 -0.4663372039794922
-0.7019608020782471 0.30980390310287476 -0.7024707794189453
0.5529412031173706 0.30980390310287476 -0.42329931259155273
0.6313725709915161 0.30980390310287476 -0.6166887283325195
0.6470588445663452 0.30980390310287476 0.043122291564941406
0.6627451181411743 0.30980390310287476 0.02772998809814453
0.7882353067398071 0.30980390310287476 0.06956195831298828
-0.7803921699523926 0.29411762952804565 -0.6860651969909668
-0.7647058963775635 0.29411762952804565 -0.6844735145568848
-0.7333333492279053 0.29411762952804565 -0.505856990814209
-0.7176470756530762 0.29411762952804565 -0.4909529685974121
-0.7019608020782471 0.29411762952804565 -0.7073802947998047
-0.686274528503418 0.29411762952804565 -0.7035951614379883
-0.6705882549285889 0.29411762952804565 -0.7019453048706055
-0.6549019813537598 0.29411762952804565 -0.700953483581543
-0.6392157077789307 0.29411762952804565 -0.6983547210693359
-0.6235294342041016 0.29411762952804565 -0.6971073150634766
-0.6078431606292725 0.29411762952804565 -0.6961393356323242
-0.5921568870544434 0.29411762952804565 -0.697822093963623
0.5372549295425415 0.29411762952804565 -0.4524068832397461
0.5529412031173706 0.29411762952804565 -0.445188045501709
0.615686297416687 0.29411762952804565 -0.641812801361084
0.6313725709915161 0.29411762952804565 -0.6303596496582031
0.6470588445663452 0.29411762952804565 0.052628517150878906
0.6627451181411743 0.29411762952804565 0.037899017333984375
0.772549033164978 0.29411762952804565 0.06950139999389648
0.7882353067398071 0.29411762952804565 0.0790090560913086
-0.7803921699523926 0.27843135595321655 -0.6813292503356934
-0.7647058963775635 0.27843135595321655 -0.684328556060791
-0.7333333492279053 0.27843135595321655 -0.5151925086975098
-0.6078431606292725 0.27843135595321655 -0.6958217620849609
-0.5921568870544434 0.27843135595321655 -0.6935091018676758
-0.5764706134796143 0.27843135595321655 -0.6933798789978027
-0.5607843399047852 0.27843135595321655 -0.6949443817138672
-0.545098066329956 0.27843135595321655 -0.6962218284606934
-0.529411792755127 0.27843135595321655 -0.6977810859680176
-0.5137255191802979 0.27843135595321655 -0.7003459930419922
-0.498039186000824 0.27843135595321655 -0.7043938636779785
-0.4823529124259949 0.27843135595321655 -0.7089166641235352
0.5372549295425415 0.27843135595321655 -0.46640825271606445
0.615686297416687 0.27843135595321655 -0.6589903831481934
0.6470588445663452 0.27843135595321655 0.06250619888305664
0.6627451181411743 0.27843135595321655 0.05033540725708008
0.772549033164978 0.27843135595321655 0.08046340942382812
0.7882353067398071 0.27843135595321655 0.0874776840209961
-0.7803921699523926 0.26274508237838745 -0.6742563247680664
-0.7647058963775635 0.26274508237838745 -0.6798796653747559
-0.7490196228027344 0.26274508237838745 -0.5538301467895508
-0.7333333492279053 0.26274508237838745 -0.5343241691589355
-0.498039186000824 0.26274508237838745 -0.7059826850891113
-0.4823529124259949 0.26274508237838745 -0.7070112228393555
-0.46666663885116577 0.26274508237838745 -0.7084789276123047
-0.45098036527633667 0.26274508237838745 -0.7108306884765625
-0.43529409170150757 0.26274508237838745 -0.7147722244262695
-0.41960781812667847 0.26274508237838745 -0.7190327644348145
-0.40392154455184937 0.26274508237838745 -0.72344970703125
-0.38823527097702026 0.26274508237838745 -0.7277941703796387
-0.37254899740219116 0.26274508237838745 -0.7336587905883789
0.5215686559677124 0.26274508237838745 -0.5016603469848633
0.5372549295425415 0.26274508237838745 -0.49009084701538086
0.615686297416687 0.26274508237838745 -0.6825461387634277
0.6470588445663452 0.26274508237838745 0.07185649871826172
0.6627451181411743 0.26274508237838745 0.06094837188720703
0.772549033164978 0.26274508237838745 0.09061241149902344
0.7882353067398071 0.26274508237838745 0.0962214469909668
-0.7803921699523926 0.24705880880355835 -0.6682729721069336
-0.7647058963775635 0.24705880880355835 -0.6707062721252441
-0.7490196228027344 0.24705880880355835 -0.5608491897583008
-0.38823527097702026 0.24705880880355835 -0.731844425201416
-0.37254899740219116 0.24705880880355835 -0.7353568077087402
-0.35686272382736206 0.24705880880355835 -0.7382082939147949
-0.34117645025253296 0.24705880880355835 -0.7411694526672363
-0.32549017667770386 0.24705880880355835 -0.7441744804382324
-0.30980390310287476 0.24705880880355835 -0.7485127449035645
-0.29411762952804565 0.24705880880355835 -0.7536044120788574
-0.27843135595321655 0.24705880880355835 -0.758091926574707
-0.26274508237838745 0.24705880880355835 -0.7641129493713379
0.5215686559677124 0.24705880880355835 -0.5167727470397949
0.6000000238418579 0.24705880880355835 -0.7184581756591797
0.6470588445663452 0.24705880880355835 0.08101797103881836
0.6627451181411743 0.24705880880355835 0.07121419906616211
0.772549033164978 0.24705880880355835 0.10056543350219727
0.7882353067398071 0.24705880880355835 0.10482978820800781
-0.7647058963775635 0.23137253522872925 -0.6559257507324219
-0.7490196228027344 0.23137253522872925 -0.5769414901733398
-0.26274508237838745 0.23137253522872925 -0.7660303115844727
-0.24705880880355835 0.23137253522872925 -0.7693696022033691
-0.23137253522872925 0.23137253522872925 -0.7714953422546387
-0.21568626165390015 0.23137253522872925 -0.7714910507202148
-0.19999998807907104 0.23137253522872925 -0.7727303504943848
-0.18431371450424194 0.23137253522872925 -0.7745871543884277
-0.16862744092941284 0.23137253522872925 -0.7753710746765137
-0.15294116735458374 0.23137253522872925 -0.7757635116577148
-0.13725489377975464 0.23137253522872925 -0.7772579193115234
0.5058823823928833 0.23137253522872925 -0.5536112785339355
0.5215686559677124 0.23137253522872925 -0.5422892570495605
0.6000000238418579 0.23137253522872925 -0.7418203353881836
0.6470588445663452 0.23137253522872925 0.08838987350463867
0.6627451181411743 0.23137253522872925 0.08021926879882812
0.772549033164978 0.23137253522872925 0.10972404479980469
0.7882353067398071 0.23137253522872925 0.11331510543823242
-0.7647058963775635 0.21568626165390015 -0.6087555885314941
-0.15294116735458374 0.21568626165390015 -0.780524730682373
-0.13725489377975464 0.21568626165390015 -0.776451587677002
-0.12156862020492554 0.21568626165390015 -0.7754364013671875
-0.10588234663009644 0.21568626165390015 -0.7756438255310059
-0.09019607305526733 0.21568626165390015 -0.7777295112609863
-0.07450979948043823 0.21568626165390015 -0.7803678512573242
-0.05882352590560913 0.21568626165390015 -0.7833056449890137
-0.04313725233078003 0.21568626165390015 -0.7868976593017578
-0.027450978755950928 0.21568626165390015 -0.7913308143615723
0.5058823823928833 0.21568626165390015 -0.5702342987060547
0.5843137502670288 0.21568626165390015 -0.7776575088500977
0.6470588445663452 0.21568626165390015 0.09506654739379883
0.6627451181411743 0.21568626165390015 0.08880329132080078
0.772549033164978 0.21568626165390015 0.11826086044311523
0.7882353067398071 0.21568626165390015 0.12015581130981445
-0.7647058963775635 0.19999998807907104 -0.6303787231445312
-0.7490196228027344 0.19999998807907104 -0.6362795829772949
-0.7333333492279053 0.19999998807907104 -0.6420674324035645
-0.04313725233078003 0.19999998807907104 -0.7896475791931152
-0.027450978755950928 0.19999998807907104 -0.7893576622009277
-0.011764705181121826 0.19999998807907104 -0.7913737297058105
0.003921627998352051 0.19999998807907104 -0.794349193572998
0.019607901573181152 0.19999998807907104 -0.7984490394592285
0.035294175148010254 0.19999998807907104 -0.8027124404907227
0.050980448722839355 0.19999998807907104 -0.8081250190734863
0.06666672229766846 0.19999998807907104 -0.8147568702697754
0.08235299587249756 0.19999998807907104 -0.8226466178894043
0.4901961088180542 0.19999998807907104 -0.6089510917663574
0.5058823823928833 0.19999998807907104 -0.5953545570373535
0.5843137502670288 0.19999998807907104 -0.8007636070251465
0.6470588445663452 0.19999998807907104 0.10097694396972656
0.6627451181411743 0.19999998807907104 0.09652233123779297
0.772549033164978 0.19999998807907104 0.12643861770629883
0.7882353067398071 0.19999998807907104 0.12703752517700195
-0.7490196228027344 0.18431371450424194 -0.6500453948974609
-0.7333333492279053 0.18431371450424194 -0.6451601982116699
-0.7176470756530762 0.18431371450424194 -0.6447339057922363
-0.7019608020782471 0.18431371450424194 -0.6451048851013184
-0.686274528503418 0.18431371450424194 -0.645686149597168
-0.6705882549285889 0.18431371450424194 -0.6466631889343262
-0.6549019813537598 0.18431371450424194 -0.6495471000671387
-0.6392157077789307 0.18431371450424194 -0.6548871994018555
-0.6235294342041016 0.18431371450424194 -0.6616702079772949
0.06666672229766846 0.18431371450424194 -0.8218269348144531
0.08235299587249756 0.18431371450424194 -0.824312686920166
0.09803926944732666 0.18431371450424194 -0.827751636505127
0.11372554302215576 0.18431371450424194 -0.8337278366088867
0.12941181659698486 0.18431371450424194 -0.8418469429016113
0.14509809017181396 0.18431371450424194 -0.8485684394836426
0.16078436374664307 0.18431371450424194 -0.8531885147094727
0.17647063732147217 0.18431371450424194 -0.8597812652587891
0.19215691089630127 0.18431371450424194 -0.865814208984375
0.4901961088180542 0.18431371450424194 -0.6266636848449707
0.5686274766921997 0.18431371450424194 -0.8306751251220703
0.5843137502670288 0.18431371450424194 -0.825009822845459
0.6470588445663452 0.18431371450424194 0.1068868637084961
0.6627451181411743 0.18431371450424194 0.10477495193481445
0.772549033164978 0.18431371450424194 0.13439226150512695
0.7882353067398071 0.18431371450424194 0.1344289779663086
-0.6392157077789307 0.16862744092941284 -0.6589398384094238
-0.6235294342041016 0.16862744092941284 -0.664161205291748
-0.6078431606292725 0.16862744092941284 -0.6695384979248047
-0.5921568870544434 0.16862744092941284 -0.6774458885192871
-0.5764706134796143 0.16862744092941284 -0.6878414154052734
-0.5607843399047852 0.16862744092941284 -0.6981053352355957
-0.545098066329956 0.16862744092941284 -0.7073173522949219
-0.529411792755127 0.16862744092941284 -0.7235612869262695
-0.5137255191802979 0.16862744092941284 -0.7413721084594727
0.17647063732147217 0.16862744092941284 -0.8661918640136719
0.19215691089630127 0.16862744092941284 -0.868558406829834
0.20784318447113037 0.16862744092941284 -0.869084358215332
0.22352945804595947 0.16862744092941284 -0.8668394088745117
0.23921573162078857 0.16862744092941284 -0.8666267395019531
0.2549020051956177 0.16862744092941284 -0.8668928146362305
0.2705882787704468 0.16862744092941284 -0.8666019439697266
0.2862745523452759 0.16862744092941284 -0.86614990234375
0.301960825920105 0.16862744092941284 -0.867042064666748
0.4745098352432251 0.16862744092941284 -0.6688361167907715
0.4901961088180542 0.16862744092941284 -0.6547088623046875
0.5686274766921997 0.16862744092941284 -0.8462691307067871
0.6470588445663452 0.16862744092941284 0.11400270462036133
0.6627451181411743 0.16862744092941284 0.11277055740356445
0.772549033164978 0.16862744092941284 0.14193201065063477
0.7882353067398071 0.16862744092941284 0.14251184463500977
-0.529411792755127 0.15294116735458374 -0.719785213470459
-0.5137255191802979 0.15294116735458374 -0.7394900321960449
-0.498039186000824 0.15294116735458374 -0.7574543952941895
-0.4823529124259949 0.15294116735458374 -0.767763614654541
-0.46666663885116577 0.15294116735458374 -0.7709798812866211
-0.45098036527633667 0.15294116735458374 -0.7745361328125
-0.43529409170150757 0.15294116735458374 -0.7796974182128906
-0.41960781812667847 0.15294116735458374 -0.7850770950317383
-0.40392154455184937 0.15294116735458374 -0.7906479835510254
0.2862745523452759 0.15294116735458374 -0.8714079856872559
0.301960825920105 0.15294116735458374 -0.8687801361083984
0.3176470994949341 0.15294116735458374 -0.8668742179870605
0.3333333730697632 0.15294116735458374 -0.8650236129760742
0.3490196466445923 0.15294116735458374 -0.866520881652832
0.3647059202194214 0.15294116735458374 -0.8716979026794434
0.3803921937942505 0.15294116735458374 -0.8776593208312988
0.3960784673690796 0.15294116735458374 -0.8798403739929199
0.4117647409439087 0.15294116735458374 -0.8819189071655273
0.4274510145187378 0.15294116735458374 -0.8836407661437988
0.4745098352432251 0.15294116735458374 -0.6836686134338379
0.5529412031173706 0.15294116735458374 -0.8735232353210449
0.5686274766921997 0.15294116735458374 -0.8628935813903809
0.6470588445663452 0.15294116735458374 0.1217503547668457
0.6627451181411743 0.15294116735458374 0.12308025360107422
0.772549033164978 0.15294116735458374 0.1495981216430664
0.7882353067398071 0.15294116735458374 0.1502985954284668
-0.41960781812667847 0.13725489377975464 -0.7912440299987793
-0.40392154455184937 0.13725489377975464 -0.7960023880004883
-0.38823527097702026 0.13725489377975464 -0.8014822006225586
-0.37254899740219116 0.13725489377975464 -0.8064155578613281
-0.35686272382736206 0.13725489377975464 -0.808565616607666
-0.34117645025253296 0.13725489377975464 -0.8094496726989746
-0.32549017667770386 0.13725489377975464 -0.8066020011901855
-0.30980390310287476 0.13725489377975464 -0.8065323829650879
-0.29411762952804565 0.13725489377975464 -0.8042001724243164
0.4117647409439087 0.13725489377975464 -0.8841061592102051
0.4274510145187378 0.13725489377975464 -0.8860702514648438
0.4431372880935669 0.13725489377975464 -0.8914389610290527
0.458823561668396 0.13725489377975464 -0.7306222915649414
0.4745098352432251 0.13725489377975464 -0.7135601043701172
0.4901961088180542 0.13725489377975464 -0.9078769683837891
0.5058823823928833 0.13725489377975464 -0.9146518707275391
0.5215686559677124 0.13725489377975464 -0.914337158203125
0.5372549295425415 0.13725489377975464 -0.9014816284179688
0.5529412031173706 0.13725489377975464 -0.8817358016967773
0.6470588445663452 0.13725489377975464 0.1311192512512207
0.6627451181411743 0.13725489377975464 0.13295841217041016
0.772549033164978 0.13725489377975464 0.15786266326904297
0.7882353067398071 0.13725489377975464 0.15843677520751953
-0.30980390310287476 0.12156862020492554 -0.8087491989135742
-0.29411762952804565 0.12156862020492554 -0.806790828704834
-0.27843135595321655 0.12156862020492554 -0.8034367561340332
-0.26274508237838745 0.12156862020492554 -0.8001585006713867
-0.24705880880355835 0.12156862020492554 -0.7972316741943359
-0.23137253522872925 0.12156862020492554 -0.7965803146362305
-0.21568626165390015 0.12156862020492554 -0.7957057952880859
-0.19999998807907104 0.12156862020492554 -0.7953810691833496
-0.18431371450424194 0.12156862020492554 -0.7948498725891113
-0.16862744092941284 0.12156862020492554 -0.7946028709411621
0.458823561668396 0.12156862020492554 -0.7414278984069824
0.5215686559677124 0.12156862020492554 -0.9185152053833008
0.5372549295425415 0.12156862020492554 -0.904390811920166
0.5529412031173706 0.12156862020492554 -0.8832197189331055
0.6470588445663452 0.12156862020492554 0.14005613327026367
0.6627451181411743 0.12156862020492554 0.14254331588745117
0.772549033164978 0.12156862020492554 0.16591930389404297
0.7882353067398071 0.12156862020492554 0.16632366180419922
-0.545098066329956 0.10588234663009644 0.4466423988342285
-0.529411792755127 0.10588234663009644 0.456449031829834
-0.5137255191802979 0.10588234663009644 0.44643211364746094
-0.498039186000824 0.10588234663009644 0.4410219192504883
-0.4823529124259949 0.10588234663009644 0.43538379669189453
-0.46666663885116577 0.10588234663009644 0.4317622184753418
-0.18431371450424194 0.10588234663009644 -0.7952208518981934
-0.16862744092941284 0.10588234663009644 -0.7950868606567383
-0.15294116735458374 0.10588234663009644 -0.7983431816101074
-0.13725489377975464 0.10588234663009644 -0.8012986183166504
-0.12156862020492554 0.10588234663009644 -0.805305004119873
-0.10588234663009644 0.10588234663009644 -0.8067951202392578
-0.09019607305526733 0.10588234663009644 -0.8092594146728516
-0.07450979948043823 0.10588234663009644 -0.8106074333190918
-0.05882352590560913 0.10588234663009644 -0.8130936622619629
0.458823561668396 0.10588234663009644 -0.7617778778076172
0.5372549295425415 0.10588234663009644 -0.9071207046508789
0.5529412031173706 0.10588234663009644 -0.8820171356201172
0.6470588445663452 0.10588234663009644 0.14955711364746094
0.6627451181411743 0.10588234663009644 0.1513991355895996
0.772549033164978 0.10588234663009644 0.17331457138061523
0.7882353067398071 0.10588234663009644 0.1744537353515625
-0.545098066329956 0.09019607305526733 0.44588232040405273
-0.529411792755127 0.09019607305526733 0.4820528030395508
-0.4823529124259949 0.09019607305526733 0.42774295806884766
-0.46666663885116577 0.09019607305526733 0.42618513107299805
-0.45098036527633667 0.09019607305526733 0.4278583526611328
-0.43529409170150757 0.09019607305526733 0.4273371696472168
-0.41960781812667847 0.09019607305526733 0.4244809150695801
-0.40392154455184937 0.09019607305526733 0.42121458053588867
-0.38823527097702026 0.09019607305526733 0.41825103759765625
-0.37254899740219116 0.09019607305526733 0.41398191452026367
-0.35686272382736206 0.09019607305526733 0.40892457962036133
-0.07450979948043823 0.09019607305526733 -0.816500186920166
-0.05882352590560913 0.09019607305526733 -0.8177690505981445
-0.04313725233078003 0.09019607305526733 -0.8169918060302734
-0.027450978755950928 0.09019607305526733 -0.8129959106445312
-0.011764705181121826 0.09019607305526733 -0.812253475189209
0.003921627998352051 0.09019607305526733 -0.8103837966918945
0.019607901573181152 0.09019607305526733 -0.8078908920288086
0.035294175148010254 0.09019607305526733 -0.8041830062866211
0.050980448722839355 0.09019607305526733 -0.8038949966430664
0.4431372880935669 0.09019607305526733 -0.7907505035400391
0.5372549295425415 0.09019607305526733 -0.8884124755859375
0.5529412031173706 0.09019607305526733 -0.876495361328125
0.6470588445663452 0.09019607305526733 0.1587376594543457
0.6627451181411743 0.09019607305526733 0.1612105369567871
0.772549033164978 0.09019607305526733 0.1805100440979004
0.7882353067398071 0.09019607305526733 0.18218040466308594
-0.5607843399047852 0.07450979948043823 0.4185175895690918
-0.545098066329956 0.07450979948043823 0.5055785179138184
-0.529411792755127 0.07450979948043823 0.5026283264160156
-0.37254899740219116 0.07450979948043823 0.4018244743347168
-0.35686272382736206 0.07450979948043823 0.4004096984863281
-0.34117645025253296 0.07450979948043823 0.3989577293395996
-0.32549017667770386 0.07450979948043823 0.39395809173583984
-0.30980390310287476 0.07450979948043823 0.3888053894042969
-0.29411762952804565 0.07450979948043823 0.3829689025878906
-0.27843135595321655 0.07450979948043823 0.37779951095581055
-0.26274508237838745 0.07450979948043823 0.3737807273864746
-0.24705880880355835 0.07450979948043823 0.3678865432739258
-0.23137253522872925 0.07450979948043823 0.36154794692993164
0.035294175148010254 0.07450979948043823 -0.8111400604248047
0.050980448722839355 0.07450979948043823 -0.8090677261352539
0.06666672229766846 0.07450979948043823 -0.8089690208435059
0.08235299587249756 0.07450979948043823 -0.8078451156616211
0.09803926944732666 0.07450979948043823 -0.8071203231811523
0.11372554302215576 0.07450979948043823 -0.8063321113586426
0.12941181659698486 0.07450979948043823 -0.8092365264892578
0.14509809017181396 0.07450979948043823 -0.8100662231445312
0.16078436374664307 0.07450979948043823 -0.8111343383789062
0.4431372880935669 0.07450979948043823 -0.8021016120910645
0.5372549295425415 0.07450979948043823 -0.8836560249328613
0.5529412031173706 0.07450979948043823 -0.8742465972900391
0.6470588445663452 0.07450979948043823 0.16766786575317383
0.6627451181411743 0.07450979948043823 0.1697702407836914
0.772549033164978 0.07450979948043823 0.18813085556030273
0.7882353067398071 0.07450979948043823 0.19076156616210938
-0.5607843399047852 0.05882352590560913 0.41275691986083984
-0.545098066329956 0.05882352590560913 0.5186381340026855
-0.529411792755127 0.05882352590560913 0.5137543678283691
-0.24705880880355835 0.05882352590560913 0.3599424362182617
-0.23137253522872925 0.05882352590560913 0.36002540588378906
-0.21568626165390015 0.05882352590560913 0.35909223556518555
-0.19999998807907104 0.05882352590560913 0.35717344284057617
-0.18431371450424194 0.05882352590560913 0.3549342155456543
-0.16862744092941284 0.05882352590560913 0.35355424880981445
-0.15294116735458374 0.05882352590560913 0.3534865379333496
-0.13725489377975464 0.05882352590560913 0.3524651527404785
-0.12156862020492554 0.05882352590560913 0.3504824638366699
0.14509809017181396 0.05882352590560913 -0.8186616897583008
0.16078436374664307 0.05882352590560913 -0.8190898895263672
0.17647063732147217 0.05882352590560913 -0.8199567794799805
0.19215691089630127 0.05882352590560913 -0.8240056037902832
0.20784318447113037 0.05882352590560913 -0.8278646469116211
0.22352945804595947 0.05882352590560913 -0.8281102180480957
0.23921573162078857 0.05882352590560913 -0.8268814086914062
0.2549020051956177 0.05882352590560913 -0.8253145217895508
0.2705882787704468 0.05882352590560913 -0.8250360488891602
0.4274510145187378 0.05882352590560913 -0.8465456962585449
0.5372549295425415 0.05882352590560913 -0.8747873306274414
0.5529412031173706 0.05882352590560913 -0.8705763816833496
0.6470588445663452 0.05882352590560913 0.1756424903869629
0.6627451181411743 0.05882352590560913 0.17813444137573242
0.772549033164978 0.05882352590560913 0.19614171981811523
0.7882353067398071 0.05882352590560913 0.19957351684570312
-0.5764706134796143 0.04313725233078003 0.39168453216552734
-0.5607843399047852 0.04313725233078003 0.3989224433898926
-0.545098066329956 0.04313725233078003 0.5289387702941895
-0.529411792755127 0.04313725233078003 0.5243215560913086
-0.12156862020492554 0.04313725233078003 0.34556007385253906
-0.10588234663009644 0.04313725233078003 0.3455638885498047
-0.09019607305526733 0.04313725233078003 0.3434419631958008
-0.07450979948043823 0.04313725233078003 0.33982324600219727
-0.05882352590560913 0.04313725233078003 0.3368082046508789
-0.04313725233078003 0.04313725233078003 0.33431291580200195
-0.027450978755950928 0.04313725233078003 0.3288722038269043
-0.011764705181121826 0.04313725233078003 0.3238997459411621
0.003921627998352051 0.04313725233078003 0.3184165954589844
0.2549020051956177 0.04313725233078003 -0.8285017013549805
0.2705882787704468 0.04313725233078003 -0.8241109848022461
0.2862745523452759 0.04313725233078003 -0.8243727684020996
0.301960825920105 0.04313725233078003 -0.8273196220397949
0.3176470994949341 0.04313725233078003 -0.8357071876525879
0.3333333730697632 0.04313725233078003 -0.8465657234191895
0.3490196466445923 0.04313725233078003 -0.8584136962890625
0.3647059202194214 0.04313725233078003 -0.8670616149902344
0.3803921937942505 0.04313725233078003 -0.8715910911560059
0.3960784673690796 0.04313725233078003 -0.8672823905944824
0.4274510145187378 0.04313725233078003 -0.8503379821777344
0.5372549295425415 0.04313725233078003 -0.8724045753479004
0.5529412031173706 0.04313725233078003 -0.8703031539916992
0.6470588445663452 0.04313725233078003 0.18356752395629883
0.6627451181411743 0.04313725233078003 0.18523454666137695
0.772549033164978 0.04313725233078003 0.20394086837768555
0.7882353067398071 0.04313725233078003 0.20853042602539062
-0.5764706134796143 0.027450978755950928 0.38253164291381836
-0.545098066329956 0.027450978755950928 0.537421703338623
-0.529411792755127 0.027450978755950928 0.5327558517456055
-0.011764705181121826 0.027450978755950928 0.3192324638366699
0.003921627998352051 0.027450978755950928 0.31974220275878906
0.019607901573181152 0.027450978755950928 0.3185849189758301
0.035294175148010254 0.027450978755950928 0.31590843200683594
0.050980448722839355 0.027450978755950928 0.3132185935974121
0.06666672229766846 0.027450978755950928 0.31066226959228516
0.08235299587249756 0.027450978755950928 0.30904054641723633
0.09803926944732666 0.027450978755950928 0.3060927391052246
0.11372554302215576 0.027450978755950928 0.30178070068359375
0.3803921937942505 0.027450978755950928 -0.8769760131835938
0.3960784673690796 0.027450978755950928 -0.8722085952758789
0.4117647409439087 0.027450978755950928 -0.861595630645752
0.4274510145187378 0.027450978755950928 -0.8514366149902344
0.5372549295425415 0.027450978755950928 -0.8702716827392578
0.5529412031173706 0.027450978755950928 -0.8688807487487793
0.6470588445663452 0.027450978755950928 0.19032526016235352
0.6627451181411743 0.027450978755950928 0.19230031967163086
0.772549033164978 0.027450978755950928 0.21205425262451172
0.7882353067398071 0.027450978755950928 0.21676874160766602
-0.5921568870544434 0.011764705181121826 0.3486456871032715
-0.5764706134796143 0.011764705181121826 0.36280155181884766
-0.545098066329956 0.011764705181121826 0.5452704429626465
-0.529411792755127 0.011764705181121826 0.5406641960144043
0.09803926944732666 0.011764705181121826 0.2941627502441406
0.11372554302215576 0.011764705181121826 0.29512882232666016
0.12941181659698486 0.011764705181121826 0.2956700325012207
0.14509809017181396 0.011764705181121826 0.29335498809814453
0.16078436374664307 0.011764705181121826 0.29163265228271484
0.17647063732147217 0.011764705181121826 0.2891054153442383
0.19215691089630127 0.011764705181121826 0.2879467010498047
0.20784318447113037 0.011764705181121826 0.28756046295166016
0.22352945804595947 0.011764705181121826 0.28549671173095703
0.23921573162078857 0.011764705181121826 0.28023481369018555
0.4117647409439087 0.011764705181121826 -0.8607587814331055
0.4274510145187378 0.011764705181121826 -0.858306884765625
0.5372549295425415 0.011764705181121826 -0.8718562126159668
0.5529412031173706 0.011764705181121826 -0.8690557479858398
0.6470588445663452 0.011764705181121826 0.1966381072998047
0.6627451181411743 0.011764705181121826 0.19816350936889648
0.772549033164978 0.011764705181121826 0.22034072875976562
0.7882353067398071 0.011764705181121826 0.22528934478759766
-0.5921568870544434 -0.003921627998352051 0.33972930908203125
-0.545098066329956 -0.003921627998352051 0.5511727333068848
-0.529411792755127 -0.003921627998352051 0.5478858947753906
0.22352945804595947 -0.003921627998352051 0.27353763580322266
0.23921573162078857 -0.003921627998352051 0.27410459518432617
0.2549020051956177 -0.003921627998352051 0.27463722229003906
0.2705882787704468 -0.003921627998352051 0.27448606491088867
0.2862745523452759 -0.003921627998352051 0.2736344337463379
0.301960825920105 -0.003921627998352051 0.27193403244018555
0.3176470994949341 -0.003921627998352051 0.27085113525390625
0.3333333730697632 -0.003921627998352051 0.26793432235717773
0.3490196466445923 -0.003921627998352051 0.26660776138305664
0.4117647409439087 -0.003921627998352051 -0.8652596473693848
0.4274510145187378 -0.003921627998352051 -0.8542494773864746
0.5372549295425415 -0.003921627998352051 -0.8717474937438965
0.5529412031173706 -0.003921627998352051 -0.8740358352661133
0.6470588445663452 -0.003921627998352051 0.20215702056884766
0.6627451181411743 -0.003921627998352051 0.20397138595581055
0.772549033164978 -0.003921627998352051 0.22856950759887695
0.7882353067398071 -0.003921627998352051 0.23308753967285156
-0.6078431606292725 -0.019607901573181152 0.3097877502441406
-0.5921568870544434 -0.019607901573181152 0.32207489013671875
-0.545098066329956 -0.019607901573181152 0.5558485984802246
-0.529411792755127 -0.019607901573181152 0.5543122291564941
0.3333333730697632 -0.019607901573181152 0.26029539108276367
0.3490196466445923 -0.019607901573181152 0.26412343978881836
0.3647059202194214 -0.019607901573181152 0.2668943405151367
0.3803921937942505 -0.019607901573181152 0.26653146743774414
0.3960784673690796 -0.019607901573181152 0.27066993713378906
0.4117647409439087 -0.019607901573181152 0.2747769355773926
0.4274510145187378 -0.019607901573181152 0.2739839553833008
0.4431372880935669 -0.019607901573181152 0.27045631408691406
0.458823561668396 -0.019607901573181152 0.26461267471313477
0.4745098352432251 -0.019607901573181152 0.2566108703613281
0.5372549295425415 -0.019607901573181152 -0.8738508224487305
0.5529412031173706 -0.019607901573181152 -0.8831596374511719
0.6470588445663452 -0.019607901573181152 0.2112741470336914
0.6627451181411743 -0.019607901573181152 0.2101120948791504
0.772549033164978 -0.019607901573181152 0.23659658432006836
0.7882353067398071 -0.019607901573181152 0.2409191131591797
-0.6078431606292725 -0.035294175148010254 0.30037498474121094
-0.545098066329956 -0.035294175148010254 0.5612754821777344
-0.529411792755127 -0.035294175148010254 0.5609922409057617
0.4117647409439087 -0.035294175148010254 -0.8045010566711426
0.4274510145187378 -0.035294175148010254 -0.8161749839782715
0.458823561668396 -0.035294175148010254 0.2610282897949219
0.4745098352432251 -0.035294175148010254 0.26209545135498047
0.4901961088180542 -0.035294175148010254 0.2630801200866699
0.5058823823928833 -0.035294175148010254 0.2553238868713379
0.5215686559677124 -0.035294175148010254 0.24863576889038086
0.5372549295425415 -0.035294175148010254 0.24861860275268555
0.5529412031173706 -0.035294175148010254 0.2483224868774414
0.5686274766921997 -0.035294175148010254 0.24367761611938477
0.5843137502670288 -0.035294175148010254 0.23223400115966797
0.6470588445663452 -0.035294175148010254 0.21914339065551758
0.6627451181411743 -0.035294175148010254 0.2141437530517578
0.772549033164978 -0.035294175148010254 0.24483680725097656
0.7882353067398071 -0.035294175148010254 0.24882793426513672
-0.6235294342041016 -0.050980448722839355 0.26708459854125977
-0.6078431606292725 -0.050980448722839355 0.2830524444580078
-0.545098066329956 -0.050980448722839355 0.5682582855224609
-0.529411792755127 -0.050980448722839355 0.5678424835205078
0.4117647409439087 -0.050980448722839355 -0.8006772994995117
0.4274510145187378 -0.050980448722839355 -0.799248218536377
0.5372549295425415 -0.050980448722839355 -0.8266749382019043
0.5529412031173706 -0.050980448722839355 -0.8285431861877441
0.5686274766921997 -0.050980448722839355 -0.24566888809204102
0.5843137502670288 -0.050980448722839355 0.22707748413085938
0.6000000238418579 -0.050980448722839355 0.2290325164794922
0.615686297416687 -0.050980448722839355 0.22918081283569336
0.6313725709915161 -0.050980448722839355 0.22763299942016602
0.6470588445663452 -0.050980448722839355 0.225433349609375
0.6627451181411743 -0.050980448722839355 0.20567846298217773
0.772549033164978 -0.050980448722839355 0.2533082962036133
0.7882353067398071 -0.050980448722839355 0.2579364776611328
-0.6235294342041016 -0.06666672229766846 0.259920597076416
-0.545098066329956 -0.06666672229766846 0.5753078460693359
-0.529411792755127 -0.06666672229766846 0.5747461318969727
0.4117647409439087 -0.06666672229766846 -0.788210391998291
0.4274510145187378 -0.06666672229766846 -0.7848296165466309
0.5372549295425415 -0.06666672229766846 -0.8101916313171387
0.5529412031173706 -0.06666672229766846 -0.8092083930969238
0.6470588445663452 -0.06666672229766846 0.20383310317993164
0.772549033164978 -0.06666672229766846 0.26111459732055664
0.7882353067398071 -0.06666672229766846 0.2663097381591797
-0.6235294342041016 -0.08235299587249756 0.24140119552612305
-0.545098066329956 -0.08235299587249756 0.5802831649780273
-0.529411792755127 -0.08235299587249756 0.5809340476989746
0.4117647409439087 -0.08235299587249756 -0.7703309059143066
0.4274510145187378 -0.08235299587249756 -0.7654647827148438
0.5372549295425415 -0.08235299587249756 -0.8085494041442871
0.5529412031173706 -0.08235299587249756 -0.8076295852661133
0.6470588445663452 -0.08235299587249756 0.17963075637817383
0.772549033164978 -0.08235299587249756 0.2688264846801758
0.7882353067398071 -0.08235299587249756 0.2742137908935547
-0.6392157077789307 -0.09803926944732666 0.21099090576171875
-0.545098066329956 -0.09803926944732666 0.5848808288574219
-0.529411792755127 -0.09803926944732666 0.5851221084594727
0.4117647409439087 -0.09803926944732666 -0.7531552314758301
0.4274510145187378 -0.09803926944732666 -0.7527713775634766
0.5372549295425415 -0.09803926944732666 -0.8054013252258301
0.5529412031173706 -0.09803926944732666 -0.8037271499633789
0.6313725709915161 -0.09803926944732666 0.14313411712646484
0.772549033164978 -0.09803926944732666 0.27545642852783203
0.7882353067398071 -0.09803926944732666 0.2814779281616211
-0.6392157077789307 -0.11372554302215576 0.19185686111450195
-0.545098066329956 -0.11372554302215576 0.5898885726928711
-0.529411792755127 -0.11372554302215576 0.5890316963195801
0.4117647409439087 -0.11372554302215576 -0.7387080192565918
0.4274510145187378 -0.11372554302215576 -0.7416315078735352
0.5372549295425415 -0.11372554302215576 -0.8060202598571777
0.5529412031173706 -0.11372554302215576 -0.805687427520752
0.6313725709915161 -0.11372554302215576 0.11298894882202148
0.772549033164978 -0.11372554302215576 0.27912425994873047
0.7882353067398071 -0.11372554302215576 0.28975439071655273
-0.6549019813537598 -0.12941181659698486 0.16097402572631836
-0.545098066329956 -0.12941181659698486 0.5945453643798828
-0.529411792755127 -0.12941181659698486 0.587247371673584
-0.5137255191802979 -0.12941181659698486 0.5674495697021484
0.4117647409439087 -0.12941181659698486 -0.7258877754211426
0.4274510145187378 -0.12941181659698486 -0.7233190536499023
0.5372549295425415 -0.12941181659698486 -0.8065462112426758
0.5529412031173706 -0.12941181659698486 -0.8054394721984863
0.615686297416687 -0.12941181659698486 0.07123708724975586
0.772549033164978 -0.12941181659698486 0.29170989990234375
0.7882353067398071 -0.12941181659698486 0.2975764274597168
-0.6549019813537598 -0.14509809017181396 0.13643360137939453
-0.545098066329956 -0.14509809017181396 0.5931820869445801
-0.529411792755127 -0.14509809017181396 0.5903439521789551
-0.5137255191802979 -0.14509809017181396 0.5834965705871582
-0.498039186000824 -0.14509809017181396 0.5798702239990234
-0.4823529124259949 -0.14509809017181396 0.5770840644836426
-0.46666663885116577 -0.14509809017181396 0.5731878280639648
-0.45098036527633667 -0.14509809017181396 0.5690183639526367
-0.43529409170150757 -0.14509809017181396 0.5647068023681641
-0.41960781812667847 -0.14509809017181396 0.5593223571777344
-0.40392154455184937 -0.14509809017181396 0.5521879196166992
0.4117647409439087 -0.14509809017181396 -0.7205295562744141
0.4274510145187378 -0.14509809017181396 -0.7175407409667969
0.5372549295425415 -0.14509809017181396 -0.8046793937683105
0.5529412031173706 -0.14509809017181396 -0.8023066520690918
0.615686297416687 -0.14509809017181396 0.046085357666015625
0.772549033164978 -0.14509809017181396 0.30223894119262695
0.7882353067398071 -0.14509809017181396 0.30538272857666016
-0.6705882549285889 -0.16078436374664307 0.09870386123657227
-0.5607843399047852 -0.16078436374664307 0.5599265098571777
-0.545098066329956 -0.16078436374664307 0.5760602951049805
-0.41960781812667847 -0.16078436374664307 0.5538091659545898
-0.40392154455184937 -0.16078436374664307 0.5535154342651367
-0.38823527097702026 -0.16078436374664307 0.5517673492431641
-0.37254899740219116 -0.16078436374664307 0.5491619110107422
-0.35686272382736206 -0.16078436374664307 0.5452103614807129
-0.34117645025253296 -0.16078436374664307 0.5409321784973145
-0.32549017667770386 -0.16078436374664307 0.5366392135620117
-0.30980390310287476 -0.16078436374664307 0.5311264991760254
-0.29411762952804565 -0.16078436374664307 0.5226988792419434
-0.27843135595321655 -0.16078436374664307 0.5140585899353027
0.4117647409439087 -0.16078436374664307 -0.7192978858947754
0.4274510145187378 -0.16078436374664307 -0.7155604362487793
0.5372549295425415 -0.16078436374664307 -0.7984805107116699
0.5529412031173706 -0.16078436374664307 -0.7977676391601562
0.6000000238418579 -0.16078436374664307 0.0036678314208984375
0.772549033164978 -0.16078436374664307 0.31012535095214844
0.7882353067398071 -0.16078436374664307 0.3118629455566406
-0.6705882549285889 -0.17647063732147217 0.07894086837768555
-0.6235294342041016 -0.17647063732147217 0.29122495651245117
-0.6078431606292725 -0.17647063732147217 0.3115534782409668
-0.5921568870544434 -0.17647063732147217 0.3269014358520508
-0.5764706134796143 -0.17647063732147217 0.34584665298461914
-0.5607843399047852 -0.17647063732147217 0.5481734275817871
-0.29411762952804565 -0.17647063732147217 0.5222048759460449
-0.27843135595321655 -0.17647063732147217 0.5188965797424316
-0.26274508237838745 -0.17647063732147217 0.5157098770141602
-0.24705880880355835 -0.17647063732147217 0.5108828544616699
-0.23137253522872925 -0.17647063732147217 0.505620002746582
-0.21568626165390015 -0.17647063732147217 0.5000643730163574
-0.19999998807907104 -0.17647063732147217 0.4940624237060547
-0.18431371450424194 -0.17647063732147217 0.4870452880859375
-0.16862744092941284 -0.17647063732147217 0.47983789443969727
0.4117647409439087 -0.17647063732147217 -0.7121901512145996
0.4274510145187378 -0.17647063732147217 -0.7136077880859375
0.5372549295425415 -0.17647063732147217 -0.7915182113647461
0.5529412031173706 -0.17647063732147217 -0.7901668548583984
0.6000000238418579 -0.17647063732147217 -0.02102518081665039
0.772549033164978 -0.17647063732147217 0.316680908203125
0.7882353067398071 -0.17647063732147217 0.3182840347290039
-0.686274528503418 -0.19215691089630127 0.03886127471923828
-0.6705882549285889 -0.19215691089630127 0.055262088775634766
-0.6235294342041016 -0.19215691089630127 0.3019676208496094
-0.5921568870544434 -0.19215691089630127 0.33575916290283203
-0.5764706134796143 -0.19215691089630127 0.5064845085144043
-0.5607843399047852 -0.19215691089630127 0.5295543670654297
-0.545098066329956 -0.19215691089630127 0.384091854095459
-0.529411792755127 -0.19215691089630127 0.390225887298584
-0.5137255191802979 -0.19215691089630127 0.3974342346191406
-0.498039186000824 -0.19215691089630127 0.3998579978942871
-0.4823529124259949 -0.19215691089630127 0.3998575210571289
-0.46666663885116577 -0.19215691089630127 0.40003252029418945
-0.18431371450424194 -0.19215691089630127 0.48256778717041016
-0.16862744092941284 -0.19215691089630127 0.48128843307495117
-0.15294116735458374 -0.19215691089630127 0.47971153259277344
-0.13725489377975464 -0.19215691089630127 0.4776129722595215
-0.12156862020492554 -0.19215691089630127 0.47425031661987305
-0.10588234663009644 -0.19215691089630127 0.4711756706237793
-0.09019607305526733 -0.19215691089630127 0.4672255516052246
-0.07450979948043823 -0.19215691089630127 0.4618825912475586
-0.05882352590560913 -0.19215691089630127 0.4552640914916992
0.4117647409439087 -0.19215691089630127 -0.7062163352966309
0.4274510145187378 -0.19215691089630127 -0.7079300880432129
0.5372549295425415 -0.19215691089630127 -0.7805581092834473
0.5529412031173706 -0.19215691089630127 -0.7775440216064453
0.5843137502670288 -0.19215691089630127 -0.06966209411621094
0.6000000238418579 -0.19215691089630127 -0.06574487686157227
0.772549033164978 -0.19215691089630127 0.32369518280029297
0.7882353067398071 -0.19215691089630127 0.3254404067993164
-0.686274528503418 -0.20784318447113037 0.024893760681152344
-0.6392157077789307 -0.20784318447113037 0.26586246490478516
-0.6235294342041016 -0.20784318447113037 0.2877659797668457
-0.5764706134796143 -0.20784318447113037 0.4999709129333496
-0.4823529124259949 -0.20784318447113037 0.39597368240356445
-0.46666663885116577 -0.20784318447113037 0.4016289710998535
-0.45098036527633667 -0.20784318447113037 0.4059114456176758
-0.43529409170150757 -0.20784318447113037 0.40882062911987305
-0.41960781812667847 -0.20784318447113037 0.41158199310302734
-0.40392154455184937 -0.20784318447113037 0.4126443862915039
-0.38823527097702026 -0.20784318447113037 0.4120030403137207
-0.37254899740219116 -0.20784318447113037 0.4097118377685547
-0.35686272382736206 -0.20784318447113037 0.4069652557373047
-0.07450979948043823 -0.20784318447113037 0.45914268493652344
-0.05882352590560913 -0.20784318447113037 0.4582343101501465
-0.04313725233078003 -0.20784318447113037 0.45697689056396484
-0.027450978755950928 -0.20784318447113037 0.4541664123535156
-0.011764705181121826 -0.20784318447113037 0.45119619369506836
0.003921627998352051 -0.20784318447113037 0.4483671188354492
0.019607901573181152 -0.20784318447113037 0.4452848434448242
0.035294175148010254 -0.20784318447113037 0.440244197845459
0.050980448722839355 -0.20784318447113037 0.4334869384765625
0.4117647409439087 -0.20784318447113037 -0.6992030143737793
0.4274510145187378 -0.20784318447113037 -0.6996493339538574
0.5372549295425415 -0.20784318447113037 -0.757871150970459
0.5529412031173706 -0.20784318447113037 -0.7563118934631348
0.5843137502670288 -0.20784318447113037 -0.09415292739868164
0.772549033164978 -0.20784318447113037 0.3303079605102539
0.7882353067398071 -0.20784318447113037 0.3331913948059082
-0.7019608020782471 -0.22352945804595947 -0.01029205322265625
-0.686274528503418 -0.22352945804595947 0.004739284515380859
-0.6392157077789307 -0.22352945804595947 0.25214290618896484
-0.6235294342041016 -0.22352945804595947 0.2794680595397949
-0.5764706134796143 -0.22352945804595947 0.4729747772216797
-0.37254899740219116 -0.22352945804595947 0.4039182662963867
-0.35686272382736206 -0.22352945804595947 0.4053988456726074
-0.34117645025253296 -0.22352945804595947 0.40559816360473633
-0.32549017667770386 -0.22352945804595947 0.40493345260620117
-0.30980390310287476 -0.22352945804595947 0.4035210609436035
-0.29411762952804565 -0.22352945804595947 0.4022355079650879
-0.27843135595321655 -0.22352945804595947 0.40020751953125
