ply
format ascii 1.0
element vertex 802
property float x
property float y
property float z
end_header
0.22352945804595947 0.5607843399047852 0.2706451416015625
0.23921573162078857 0.5607843399047852 0.2772650718688965
0.2549020051956177 0.5607843399047852 0.283231258392334
-0.7176470756530762 0.545098066329956 -0.27725648880004883
-0.7019608020782471 0.545098066329956 -0.28085803985595703
-0.686274528503418 0.545098066329956 -0.35619163513183594
0.11372554302215576 0.545098066329956 0.27773475646972656
0.12941181659698486 0.545098066329956 0.2879600524902344
0.14509809017181396 0.545098066329956 0.29720067977905273
0.16078436374664307 0.545098066329956 0.30452442169189453
0.17647063732147217 0.545098066329956 0.31311702728271484
0.19215691089630127 0.545098066329956 0.32062530517578125
0.20784318447113037 0.545098066329956 0.3226776123046875
0.23921573162078857 0.545098066329956 0.27549123764038086
0.2549020051956177 0.545098066329956 0.28609418869018555
0.2705882787704468 0.545098066329956 0.2967853546142578
0.2862745523452759 0.545098066329956 0.3067440986633301
0.301960825920105 0.545098066329956 0.31578779220581055
0.3176470994949341 0.545098066329956 0.3231801986694336
0.3333333730697632 0.545098066329956 0.32914161682128906
-0.7176470756530762 0.529411792755127 -0.28177833557128906
-0.7019608020782471 0.529411792755127 -0.28499841690063477
-0.686274528503418 0.529411792755127 -0.3620734214782715
0.20784318447113037 0.529411792755127 0.3283963203430176
0.22352945804595947 0.529411792755127 0.3381328582763672
0.23921573162078857 0.529411792755127 0.34694862365722656
0.2549020051956177 0.529411792755127 0.35504865646362305
0.2705882787704468 0.529411792755127 0.3635859489440918
0.2862745523452759 0.529411792755127 0.3703622817993164
0.301960825920105 0.529411792755127 0.3477187156677246
0.3333333730697632 0.529411792755127 0.33141422271728516
0.3490196466445923 0.529411792755127 0.34022951126098633
0.3647059202194214 0.529411792755127 0.3493032455444336
0.3803921937942505 0.529411792755127 0.3569631576538086
0.3960784673690796 0.529411792755127 0.36482667922973633
0.4117647409439087 0.529411792755127 0.37358760833740234
0.4274510145187378 0.529411792755127 0.381375789642334
-0.7176470756530762 0.5137255191802979 -0.2863588333129883
-0.7019608020782471 0.5137255191802979 -0.28957366943359375
-0.686274528503418 0.5137255191802979 -0.36722803115844727
0.2862745523452759 0.5137255191802979 0.36914777755737305
0.301960825920105 0.5137255191802979 0.3800783157348633
0.3176470994949341 0.5137255191802979 0.3913908004760742
0.3333333730697632 0.5137255191802979 0.4013199806213379
0.3490196466445923 0.5137255191802979 0.4100761413574219
0.3647059202194214 0.5137255191802979 0.4198293685913086
0.3803921937942505 0.5137255191802979 0.4252595901489258
0.3960784673690796 0.5137255191802979 0.3584599494934082
0.4274510145187378 0.5137255191802979 0.3815732002258301
0.4431372880935669 0.5137255191802979 0.3945655822753906
0.458823561668396 0.5137255191802979 0.40514278411865234
0.4745098352432251 0.5137255191802979 0.4145169258117676
0.4901961088180542 0.5137255191802979 0.4221973419189453
0.5058823823928833 0.5137255191802979 0.42908143997192383
0.5215686559677124 0.5137255191802979 0.4362926483154297
-0.7176470756530762 0.498039186000824 -0.2909660339355469
-0.7019608020782471 0.498039186000824 -0.2948012351989746
-0.686274528503418 0.498039186000824 -0.3732614517211914
0.3803921937942505 0.498039186000824 0.4275369644165039
0.3960784673690796 0.498039186000824 0.4385223388671875
0.4117647409439087 0.498039186000824 0.44928932189941406
0.4274510145187378 0.498039186000824 0.4575953483581543
0.4431372880935669 0.498039186000824 0.4674239158630371
0.458823561668396 0.498039186000824 0.476102352142334
0.4745098352432251 0.498039186000824 0.4817628860473633
0.5058823823928833 0.498039186000824 0.4288177490234375
0.5215686559677124 0.498039186000824 0.4383211135864258
0.5372549295425415 0.498039186000824 0.4486966133117676
0.5529412031173706 0.498039186000824 0.4575037956237793
0.5686274766921997 0.498039186000824 0.46387195587158203
0.5843137502670288 0.498039186000824 0.470858097076416
0.6000000238418579 0.498039186000824 0.4795675277709961
0.615686297416687 0.498039186000824 0.4868659973144531
-0.7176470756530762 0.4823529124259949 -0.29576587677001953
-0.7019608020782471 0.4823529124259949 -0.2998075485229492
-0.686274528503418 0.4823529124259949 -0.3779726028442383
0.4745098352432251 0.4823529124259949 0.4827690124511719
0.4901961088180542 0.4823529124259949 0.49383068084716797
0.5058823823928833 0.4823529124259949 0.5045046806335449
0.5215686559677124 0.4823529124259949 0.5117249488830566
0.5372549295425415 0.4823529124259949 0.5196561813354492
0.5529412031173706 0.4823529124259949 0.5270171165466309
0.5686274766921997 0.4823529124259949 0.528266429901123
0.6000000238418579 0.4823529124259949 0.4780764579772949
0.615686297416687 0.4823529124259949 0.4877033233642578
0.6313725709915161 0.4823529124259949 0.49894046783447266
0.6470588445663452 0.4823529124259949 0.5087761878967285
0.6627451181411743 0.4823529124259949 0.5186038017272949
0.6784313917160034 0.4823529124259949 0.5279192924499512
0.6941176652908325 0.4823529124259949 0.5351638793945312
-0.7176470756530762 0.46666663885116577 -0.3008451461791992
-0.7019608020782471 0.46666663885116577 -0.3042416572570801
-0.686274528503418 0.46666663885116577 -0.3828568458557129
0.5529412031173706 0.46666663885116577 0.5239620208740234
0.5686274766921997 0.46666663885116577 0.5333962440490723
0.5843137502670288 0.46666663885116577 0.5422472953796387
0.6000000238418579 0.46666663885116577 0.5499687194824219
0.615686297416687 0.46666663885116577 0.5581731796264648
0.6313725709915161 0.46666663885116577 0.5667686462402344
0.6470588445663452 0.46666663885116577 0.5715055465698242
0.6627451181411743 0.46666663885116577 0.5736980438232422
0.6941176652908325 0.46666663885116577 0.5670580863952637
0.7098039388656616 0.46666663885116577 0.5610504150390625
0.7254902124404907 0.46666663885116577 0.5451912879943848
-0.7176470756530762 0.45098036527633667 -0.3053426742553711
-0.7019608020782471 0.45098036527633667 -0.3079409599304199
-0.686274528503418 0.45098036527633667 -0.38578367233276367
0.6470588445663452 0.45098036527633667 0.5673632621765137
0.6627451181411743 0.45098036527633667 0.5745143890380859
0.6784313917160034 0.45098036527633667 0.5773077011108398
0.6941176652908325 0.45098036527633667 0.5779876708984375
0.7098039388656616 0.45098036527633667 0.5259032249450684
0.7254902124404907 0.45098036527633667 0.5275588035583496
-0.7176470756530762 0.43529409170150757 -0.3090476989746094
-0.7019608020782471 0.43529409170150757 -0.3120431900024414
-0.686274528503418 0.43529409170150757 -0.3886880874633789
0.6941176652908325 0.43529409170150757 0.5815410614013672
0.7098039388656616 0.43529409170150757 0.5164303779602051
0.7254902124404907 0.43529409170150757 0.5195736885070801
-0.7176470756530762 0.41960781812667847 -0.31276988983154297
-0.7019608020782471 0.41960781812667847 -0.31621885299682617
-0.686274528503418 0.41960781812667847 -0.39110898971557617
0.6941176652908325 0.41960781812667847 0.5821700096130371
0.7098039388656616 0.41960781812667847 0.5088529586791992
0.7254902124404907 0.41960781812667847 0.5156960487365723
-0.7176470756530762 0.40392154455184937 -0.31719017028808594
-0.7019608020782471 0.40392154455184937 -0.32111310958862305
-0.686274528503418 0.40392154455184937 -0.39595699310302734
0.6941176652908325 0.40392154455184937 0.5794405937194824
0.7098039388656616 0.40392154455184937 0.5056705474853516
0.7254902124404907 0.40392154455184937 0.5098562240600586
-0.7176470756530762 0.38823527097702026 -0.32175302505493164
-0.7019608020782471 0.38823527097702026 -0.3259611129760742
-0.686274528503418 0.38823527097702026 -0.40113019943237305
0.6941176652908325 0.38823527097702026 0.5769176483154297
0.7254902124404907 0.38823527097702026 0.5046815872192383
-0.7176470756530762 0.37254899740219116 -0.3265237808227539
-0.7019608020782471 0.37254899740219116 -0.33127832412719727
-0.686274528503418 0.37254899740219116 -0.4074831008911133
0.6941176652908325 0.37254899740219116 0.5741968154907227
0.7254902124404907 0.37254899740219116 0.497251033782959
-0.7176470756530762 0.35686272382736206 -0.3311910629272461
-0.7019608020782471 0.35686272382736206 -0.33527135848999023
-0.686274528503418 0.35686272382736206 -0.41287946701049805
0.6941176652908325 0.35686272382736206 0.5701093673706055
0.7098039388656616 0.35686272382736206 0.4877762794494629
0.7254902124404907 0.35686272382736206 0.48929452896118164
-0.7176470756530762 0.34117645025253296 -0.3353910446166992
-0.7019608020782471 0.34117645025253296 -0.3390836715698242
-0.686274528503418 0.34117645025253296 -0.41812705993652344
0.6941176652908325 0.34117645025253296 0.5647392272949219
0.7098039388656616 0.34117645025253296 0.48483753204345703
0.7254902124404907 0.34117645025253296 0.48166656494140625
-0.7176470756530762 0.32549017667770386 -0.33935022354125977
-0.7019608020782471 0.32549017667770386 -0.3432493209838867
-0.686274528503418 0.32549017667770386 -0.4217410087585449
0.6941176652908325 0.32549017667770386 0.5577101707458496
0.7098039388656616 0.32549017667770386 0.4937782287597656
0.7254902124404907 0.32549017667770386 0.4742279052734375
-0.7176470756530762 0.30980390310287476 -0.343472957611084
-0.7019608020782471 0.30980390310287476 -0.34879541397094727
-0.686274528503418 0.30980390310287476 -0.42580652236938477
0.6941176652908325 0.30980390310287476 0.5517778396606445
0.7098039388656616 0.30980390310287476 0.49509620666503906
0.7254902124404907 0.30980390310287476 0.468595027923584
-0.7176470756530762 0.29411762952804565 -0.34792375564575195
-0.7019608020782471 0.29411762952804565 -0.35395193099975586
-0.686274528503418 0.29411762952804565 -0.42870330810546875
0.6941176652908325 0.29411762952804565 0.5446438789367676
0.7098039388656616 0.29411762952804565 0.4802241325378418
0.7254902124404907 0.29411762952804565 0.46646785736083984
-0.7176470756530762 0.27843135595321655 -0.3523678779602051
-0.7019608020782471 0.27843135595321655 -0.35810041427612305
-0.686274528503418 0.27843135595321655 -0.4323701858520508
0.6941176652908325 0.27843135595321655 0.538599967956543
0.7098039388656616 0.27843135595321655 0.4670114517211914
0.7254902124404907 0.27843135595321655 0.46639537811279297
-0.7176470756530762 0.26274508237838745 -0.3565645217895508
-0.7019608020782471 0.26274508237838745 -0.36130857467651367
-0.686274528503418 0.26274508237838745 -0.4354743957519531
0.6941176652908325 0.26274508237838745 0.5338730812072754
0.7098039388656616 0.26274508237838745 0.45539236068725586
0.7254902124404907 0.26274508237838745 0.4653654098510742
-0.7176470756530762 0.24705880880355835 -0.35996246337890625
-0.7019608020782471 0.24705880880355835 -0.3644270896911621
-0.686274528503418 0.24705880880355835 -0.43930864334106445
0.6941176652908325 0.24705880880355835 0.5297188758850098
0.7098039388656616 0.24705880880355835 0.44772768020629883
0.7254902124404907 0.24705880880355835 0.4628739356994629
-0.7176470756530762 0.23137253522872925 -0.3637986183166504
-0.7019608020782471 0.23137253522872925 -0.36706018447875977
-0.686274528503418 0.23137253522872925 -0.4411935806274414
0.6941176652908325 0.23137253522872925 0.5242877006530762
0.7098039388656616 0.23137253522872925 0.44424867630004883
0.7254902124404907 0.23137253522872925 0.4591069221496582
-0.7176470756530762 0.21568626165390015 -0.36892127990722656
-0.7019608020782471 0.21568626165390015 -0.37036561965942383
-0.686274528503418 0.21568626165390015 -0.4438948631286621
0.6941176652908325 0.21568626165390015 0.5193405151367188
0.7098039388656616 0.21568626165390015 0.44179201126098633
0.7254902124404907 0.21568626165390015 0.455324649810791
-0.7176470756530762 0.19999998807907104 -0.3752431869506836
-0.7019608020782471 0.19999998807907104 -0.37436914443969727
-0.686274528503418 0.19999998807907104 -0.44705772399902344
0.6941176652908325 0.19999998807907104 0.5141844749450684
0.7098039388656616 0.19999998807907104 0.4418940544128418
0.7254902124404907 0.19999998807907104 0.4509744644165039
-0.7176470756530762 0.18431371450424194 -0.3799324035644531
-0.7019608020782471 0.18431371450424194 -0.37844324111938477
-0.686274528503418 0.18431371450424194 -0.4494771957397461
0.6941176652908325 0.18431371450424194 0.5102238655090332
0.7098039388656616 0.18431371450424194 0.43631744384765625
0.7254902124404907 0.18431371450424194 0.4457554817199707
-0.7176470756530762 0.16862744092941284 -0.3789825439453125
-0.7019608020782471 0.16862744092941284 -0.37636709213256836
-0.686274528503418 0.16862744092941284 -0.4464230537414551
-0.35686272382736206 0.16862744092941284 -0.21332788467407227
-0.34117645025253296 0.16862744092941284 -0.1993560791015625
-0.32549017667770386 0.16862744092941284 -0.1882472038269043
-0.30980390310287476 0.16862744092941284 -0.17904281616210938
-0.29411762952804565 0.16862744092941284 -0.17160701751708984
-0.27843135595321655 0.16862744092941284 -0.1645374298095703
-0.26274508237838745 0.16862744092941284 -0.15819692611694336
-0.24705880880355835 0.16862744092941284 -0.15242719650268555
-0.23137253522872925 0.16862744092941284 -0.14334917068481445
-0.21568626165390015 0.16862744092941284 -0.13112258911132812
-0.19999998807907104 0.16862744092941284 -0.11771488189697266
-0.18431371450424194 0.16862744092941284 -0.10448551177978516
-0.16862744092941284 0.16862744092941284 -0.0947270393371582
-0.15294116735458374 0.16862744092941284 -0.08577680587768555
-0.13725489377975464 0.16862744092941284 -0.0764927864074707
-0.12156862020492554 0.16862744092941284 -0.0657353401184082
-0.10588234663009644 0.16862744092941284 -0.05671501159667969
-0.09019607305526733 0.16862744092941284 -0.05071687698364258
-0.07450979948043823 0.16862744092941284 -0.0464177131652832
0.6941176652908325 0.16862744092941284 0.5059037208557129
0.7098039388656616 0.16862744092941284 0.43208980560302734
0.7254902124404907 0.16862744092941284 0.4407525062561035
-0.7176470756530762 0.15294116735458374 -0.3787546157836914
-0.7019608020782471 0.15294116735458374 -0.37491941452026367
-0.686274528503418 0.15294116735458374 -0.4336214065551758
-0.45098036527633667 0.15294116735458374 -0.27381086349487305
-0.43529409170150757 0.15294116735458374 -0.2621898651123047
-0.41960781812667847 0.15294116735458374 -0.24848270416259766
-0.40392154455184937 0.15294116735458374 -0.22370433807373047
-0.38823527097702026 0.15294116735458374 -0.1885061264038086
-0.37254899740219116 0.15294116735458374 -0.17837858200073242
-0.35686272382736206 0.15294116735458374 -0.16722965240478516
-0.34117645025253296 0.15294116735458374 -0.1564345359802246
-0.32549017667770386 0.15294116735458374 -0.1464242935180664
-0.30980390310287476 0.15294116735458374 -0.1376938819885254
-0.29411762952804565 0.15294116735458374 -0.12682199478149414
-0.27843135595321655 0.15294116735458374 -0.1158905029296875
-0.26274508237838745 0.15294116735458374 -0.10519790649414062
-0.24705880880355835 0.15294116735458374 -0.09642839431762695
-0.23137253522872925 0.15294116735458374 -0.08850908279418945
-0.21568626165390015 0.15294116735458374 -0.08027458190917969
-0.19999998807907104 0.15294116735458374 -0.07021284103393555
-0.18431371450424194 0.15294116735458374 -0.05949735641479492
-0.16862744092941284 0.15294116735458374 -0.04849576950073242
-0.15294116735458374 0.15294116735458374 -0.03937673568725586
-0.13725489377975464 0.15294116735458374 -0.032529354095458984
-0.12156862020492554 0.15294116735458374 -0.028293132781982422
-0.09019607305526733 0.15294116735458374 -0.0514531135559082
-0.07450979948043823 0.15294116735458374 -0.047260284423828125
-0.05882352590560913 0.15294116735458374 -0.04051494598388672
-0.04313725233078003 0.15294116735458374 -0.03251981735229492
-0.027450978755950928 0.15294116735458374 -0.024318218231201172
-0.011764705181121826 0.15294116735458374 -0.01634979248046875
0.003921627998352051 0.15294116735458374 -0.008691787719726562
0.019607901573181152 0.15294116735458374 -0.002262592315673828
0.035294175148010254 0.15294116735458374 0.0038299560546875
0.6941176652908325 0.15294116735458374 0.5014157295227051
0.7098039388656616 0.15294116735458374 0.4295058250427246
0.7254902124404907 0.15294116735458374 0.4366292953491211
-0.7176470756530762 0.13725489377975464 -0.38230323791503906
-0.7019608020782471 0.13725489377975464 -0.3763914108276367
-0.686274528503418 0.13725489377975464 -0.4057750701904297
-0.6705882549285889 0.13725489377975464 -0.42105531692504883
-0.6549019813537598 0.13725489377975464 -0.4228649139404297
-0.6392157077789307 0.13725489377975464 -0.41481876373291016
-0.6235294342041016 0.13725489377975464 -0.4028334617614746
-0.6078431606292725 0.13725489377975464 -0.3921823501586914
-0.5921568870544434 0.13725489377975464 -0.38135623931884766
-0.529411792755127 0.13725489377975464 -0.32912254333496094
-0.5137255191802979 0.13725489377975464 -0.3096017837524414
-0.498039186000824 0.13725489377975464 -0.2899632453918457
-0.4823529124259949 0.13725489377975464 -0.24360084533691406
-0.46666663885116577 0.13725489377975464 -0.23066997528076172
-0.45098036527633667 0.13725489377975464 -0.21910381317138672
-0.43529409170150757 0.13725489377975464 -0.20789194107055664
-0.41960781812667847 0.13725489377975464 -0.19942235946655273
-0.40392154455184937 0.13725489377975464 -0.19153690338134766
-0.38823527097702026 0.13725489377975464 -0.18521642684936523
-0.37254899740219116 0.13725489377975464 -0.17745590209960938
-0.35686272382736206 0.13725489377975464 -0.1685776710510254
-0.34117645025253296 0.13725489377975464 -0.16278553009033203
-0.32549017667770386 0.13725489377975464 -0.16215133666992188
-0.15294116735458374 0.13725489377975464 -0.043234825134277344
-0.13725489377975464 0.13725489377975464 -0.03205251693725586
-0.12156862020492554 0.13725489377975464 -0.02212667465209961
-0.10588234663009644 0.13725489377975464 -0.011989593505859375
-0.09019607305526733 0.13725489377975464 -0.00075531005859375
-0.07450979948043823 0.13725489377975464 0.009759902954101562
-0.05882352590560913 0.13725489377975464 0.01892566680908203
-0.04313725233078003 0.13725489377975464 0.028803348541259766
-0.027450978755950928 0.13725489377975464 0.03731679916381836
-0.011764705181121826 0.13725489377975464 0.041956424713134766
0.019607901573181152 0.13725489377975464 -0.002483844757080078
0.035294175148010254 0.13725489377975464 0.008502006530761719
0.050980448722839355 0.13725489377975464 0.018532752990722656
0.06666672229766846 0.13725489377975464 0.026558399200439453
0.08235299587249756 0.13725489377975464 0.033487796783447266
0.09803926944732666 0.13725489377975464 0.03933572769165039
0.6941176652908325 0.13725489377975464 0.49581384658813477
0.7098039388656616 0.13725489377975464 0.4275627136230469
0.7254902124404907 0.13725489377975464 0.43253374099731445
-0.7176470756530762 0.12156862020492554 -0.39754772186279297
-0.7019608020782471 0.12156862020492554 -0.3791823387145996
-0.686274528503418 0.12156862020492554 -0.37195396423339844
-0.6705882549285889 0.12156862020492554 -0.35949134826660156
-0.6549019813537598 0.12156862020492554 -0.34827089309692383
-0.6392157077789307 0.12156862020492554 -0.33864307403564453
-0.6235294342041016 0.12156862020492554 -0.33563995361328125
-0.5921568870544434 0.12156862020492554 -0.374021053314209
-0.5764706134796143 0.12156862020492554 -0.359499454498291
-0.5607843399047852 0.12156862020492554 -0.34441375732421875
-0.545098066329956 0.12156862020492554 -0.28392457962036133
-0.529411792755127 0.12156862020492554 -0.27139854431152344
-0.5137255191802979 0.12156862020492554 -0.26093244552612305
-0.498039186000824 0.12156862020492554 -0.2521662712097168
-0.4823529124259949 0.12156862020492554 -0.2449169158935547
-0.46666663885116577 0.12156862020492554 -0.2583308219909668
-0.011764705181121826 0.12156862020492554 0.04496574401855469
0.003921627998352051 0.12156862020492554 0.056273460388183594
0.019607901573181152 0.12156862020492554 0.06632709503173828
0.035294175148010254 0.12156862020492554 0.07320356369018555
0.050980448722839355 0.12156862020492554 0.08111238479614258
0.06666672229766846 0.12156862020492554 0.08615732192993164
0.09803926944732666 0.12156862020492554 0.03972148895263672
0.11372554302215576 0.12156862020492554 0.04864501953125
0.12941181659698486 0.12156862020492554 0.056122779846191406
0.14509809017181396 0.12156862020492554 0.061686038970947266
0.16078436374664307 0.12156862020492554 0.06638193130493164
0.6941176652908325 0.12156862020492554 0.4908332824707031
0.7098039388656616 0.12156862020492554 0.4192328453063965
0.7254902124404907 0.12156862020492554 0.42612361907958984
-0.6392157077789307 0.10588234663009644 -0.33661699295043945
-0.6235294342041016 0.10588234663009644 -0.32166004180908203
-0.6078431606292725 0.10588234663009644 -0.3099994659423828
-0.5921568870544434 0.10588234663009644 -0.3017091751098633
-0.5764706134796143 0.10588234663009644 -0.29540538787841797
-0.5607843399047852 0.10588234663009644 -0.2892880439758301
-0.545098066329956 0.10588234663009644 -0.28366756439208984
-0.529411792755127 0.10588234663009644 -0.30089282989501953
0.06666672229766846 0.10588234663009644 0.0882411003112793
0.08235299587249756 0.10588234663009644 0.09827375411987305
0.09803926944732666 0.10588234663009644 0.10668182373046875
0.11372554302215576 0.10588234663009644 0.11402034759521484
0.12941181659698486 0.10588234663009644 0.1197357177734375
0.16078436374664307 0.10588234663009644 0.06707000732421875
0.17647063732147217 0.10588234663009644 0.07532167434692383
0.19215691089630127 0.10588234663009644 0.08397150039672852
0.20784318447113037 0.10588234663009644 0.08977031707763672
0.22352945804595947 0.10588234663009644 0.09229850769042969
0.6941176652908325 0.10588234663009644 0.48688840866088867
0.7098039388656616 0.10588234663009644 0.41431617736816406
0.7254902124404907 0.10588234663009644 0.41869306564331055
0.12941181659698486 0.09019607305526733 0.12088298797607422
0.14509809017181396 0.09019607305526733 0.1323399543762207
0.16078436374664307 0.09019607305526733 0.14054441452026367
0.17647063732147217 0.09019607305526733 0.14615249633789062
0.22352945804595947 0.09019607305526733 0.09806156158447266
0.23921573162078857 0.09019607305526733 0.10447168350219727
0.2549020051956177 0.09019607305526733 0.11048460006713867
0.6941176652908325 0.09019607305526733 0.4831209182739258
0.7098039388656616 0.09019607305526733 0.4121103286743164
0.7254902124404907 0.09019607305526733 0.41265249252319336
0.17647063732147217 0.07450979948043823 0.14630842208862305
0.19215691089630127 0.07450979948043823 0.15871953964233398
0.20784318447113037 0.07450979948043823 0.1668548583984375
0.22352945804595947 0.07450979948043823 0.1723923683166504
0.2549020051956177 0.07450979948043823 0.1114816665649414
0.2705882787704468 0.07450979948043823 0.12210464477539062
0.2862745523452759 0.07450979948043823 0.13142108917236328
0.301960825920105 0.07450979948043823 0.13717937469482422
0.6941176652908325 0.07450979948043823 0.47893381118774414
0.7098039388656616 0.07450979948043823 0.4104623794555664
0.7254902124404907 0.07450979948043823 0.4076418876647949
0.22352945804595947 0.05882352590560913 0.17422199249267578
0.23921573162078857 0.05882352590560913 0.18501806259155273
0.2549020051956177 0.05882352590560913 0.19240188598632812
0.2705882787704468 0.05882352590560913 0.19697046279907227
0.301960825920105 0.05882352590560913 0.1413741111755371
0.3176470994949341 0.05882352590560913 0.15079212188720703
0.3333333730697632 0.05882352590560913 0.15789413452148438
0.6941176652908325 0.05882352590560913 0.47475767135620117
0.7098039388656616 0.05882352590560913 0.40686750411987305
0.7254902124404907 0.05882352590560913 0.4021463394165039
0.2705882787704468 0.04313725233078003 0.20126914978027344
0.2862745523452759 0.04313725233078003 0.21069860458374023
0.301960825920105 0.04313725233078003 0.21654748916625977
0.3490196466445923 0.04313725233078003 0.1711592674255371
0.3647059202194214 0.04313725233078003 0.17958307266235352
0.3803921937942505 0.04313725233078003 0.18375921249389648
0.6941176652908325 0.04313725233078003 0.4709939956665039
0.7098039388656616 0.04313725233078003 0.39936399459838867
0.7254902124404907 0.04313725233078003 0.3963303565979004
0.3176470994949341 0.027450978755950928 0.22564363479614258
0.3333333730697632 0.027450978755950928 0.23249340057373047
0.3490196466445923 0.027450978755950928 0.23277807235717773
0.3803921937942505 0.027450978755950928 0.18862533569335938
0.3960784673690796 0.027450978755950928 0.19726800918579102
0.4117647409439087 0.027450978755950928 0.20259618759155273
0.6941176652908325 0.027450978755950928 0.4678463935852051
0.7098039388656616 0.027450978755950928 0.39406442642211914
0.7254902124404907 0.027450978755950928 0.3915085792541504
0.3490196466445923 0.011764705181121826 0.24165773391723633
0.3647059202194214 0.011764705181121826 0.2500028610229492
0.3803921937942505 0.011764705181121826 0.25304317474365234
0.4117647409439087 0.011764705181121826 0.20537233352661133
0.4274510145187378 0.011764705181121826 0.21919012069702148
0.4431372880935669 0.011764705181121826 0.2257404327392578
0.6941176652908325 0.011764705181121826 0.4641880989074707
0.7098039388656616 0.011764705181121826 0.3904075622558594
0.7254902124404907 0.011764705181121826 0.3857283592224121
0.3803921937942505 -0.003921627998352051 0.26040172576904297
0.3960784673690796 -0.003921627998352051 0.2702488899230957
0.4117647409439087 -0.003921627998352051 0.27495574951171875
0.4431372880935669 -0.003921627998352051 0.23062562942504883
0.458823561668396 -0.003921627998352051 0.2399439811706543
0.4745098352432251 -0.003921627998352051 0.24348783493041992
0.6941176652908325 -0.003921627998352051 0.45977115631103516
0.7098039388656616 -0.003921627998352051 0.38894128799438477
0.7254902124404907 -0.003921627998352051 0.38123655319213867
0.4117647409439087 -0.019607901573181152 0.2792830467224121
0.4274510145187378 -0.019607901573181152 0.2883338928222656
0.4431372880935669 -0.019607901573181152 0.29210567474365234
0.4745098352432251 -0.019607901573181152 0.2470097541809082
0.4901961088180542 -0.019607901573181152 0.255861759185791
0.5058823823928833 -0.019607901573181152 0.25868892669677734
0.6941176652908325 -0.019607901573181152 0.4545612335205078
0.7098039388656616 -0.019607901573181152 0.38101863861083984
0.7254902124404907 -0.019607901573181152 0.3779125213623047
0.4431372880935669 -0.035294175148010254 0.2956414222717285
0.458823561668396 -0.035294175148010254 0.3040337562561035
0.4745098352432251 -0.035294175148010254 0.3060884475708008
0.5058823823928833 -0.035294175148010254 0.26475000381469727
0.5215686559677124 -0.035294175148010254 0.27182817459106445
0.6941176652908325 -0.035294175148010254 0.4501228332519531
0.7098039388656616 -0.035294175148010254 0.38022661209106445
0.7254902124404907 -0.035294175148010254 0.3757495880126953
0.4745098352432251 -0.050980448722839355 0.31091880798339844
0.4901961088180542 -0.050980448722839355 0.31692934036254883
0.5372549295425415 -0.050980448722839355 0.2794790267944336
0.5529412031173706 -0.050980448722839355 0.28376150131225586
0.6941176652908325 -0.050980448722839355 0.4448966979980469
0.7098039388656616 -0.050980448722839355 0.38088560104370117
0.7254902124404907 -0.050980448722839355 0.3739910125732422
0.5058823823928833 -0.06666672229766846 0.3237318992614746
0.5215686559677124 -0.06666672229766846 0.32921743392944336
0.5529412031173706 -0.06666672229766846 0.28317785263061523
0.5686274766921997 -0.06666672229766846 0.29210662841796875
0.5843137502670288 -0.06666672229766846 0.29677820205688477
0.6941176652908325 -0.06666672229766846 0.4408750534057617
0.7098039388656616 -0.06666672229766846 0.3773784637451172
0.7254902124404907 -0.06666672229766846 0.36606931686401367
0.5215686559677124 -0.08235299587249756 0.3302922248840332
0.5372549295425415 -0.08235299587249756 0.3394660949707031
0.5529412031173706 -0.08235299587249756 0.34265804290771484
0.5686274766921997 -0.08235299587249756 0.2887396812438965
0.5843137502670288 -0.08235299587249756 0.2991466522216797
0.6000000238418579 -0.08235299587249756 0.31020641326904297
0.615686297416687 -0.08235299587249756 0.3180861473083496
0.6313725709915161 -0.08235299587249756 0.325014591217041
0.6470588445663452 -0.08235299587249756 0.3327951431274414
0.6627451181411743 -0.08235299587249756 0.34363412857055664
0.6941176652908325 -0.08235299587249756 0.4380979537963867
0.7098039388656616 -0.08235299587249756 0.35980892181396484
0.7254902124404907 -0.08235299587249756 0.35868167877197266
0.5529412031173706 -0.09803926944732666 0.34661865234375
0.5686274766921997 -0.09803926944732666 0.35291099548339844
0.5843137502670288 -0.09803926944732666 0.3570218086242676
0.6000000238418579 -0.09803926944732666 0.36089277267456055
0.615686297416687 -0.09803926944732666 0.36232566833496094
0.6313725709915161 -0.09803926944732666 0.33622169494628906
0.6627451181411743 -0.09803926944732666 0.38097620010375977
0.6784313917160034 -0.09803926944732666 0.39431238174438477
0.6941176652908325 -0.09803926944732666 0.4362335205078125
0.7098039388656616 -0.09803926944732666 0.3529200553894043
0.7254902124404907 -0.09803926944732666 0.35524702072143555
0.615686297416687 -0.11372554302215576 0.3637833595275879
0.6313725709915161 -0.11372554302215576 0.3708500862121582
0.6470588445663452 -0.11372554302215576 0.3772444725036621
0.6627451181411743 -0.11372554302215576 0.38506460189819336
0.6784313917160034 -0.11372554302215576 0.3947720527648926
0.6941176652908325 -0.11372554302215576 0.4341583251953125
0.7098039388656616 -0.11372554302215576 0.3561840057373047
0.7254902124404907 -0.11372554302215576 0.3528928756713867
0.6784313917160034 -0.12941181659698486 0.39736175537109375
0.6941176652908325 -0.12941181659698486 0.43198394775390625
0.7098039388656616 -0.12941181659698486 0.3475813865661621
0.7254902124404907 -0.12941181659698486 0.3428778648376465
0.6784313917160034 -0.14509809017181396 0.42629051208496094
0.6941176652908325 -0.14509809017181396 0.4309530258178711
0.7098039388656616 -0.14509809017181396 0.3351311683654785
0.7254902124404907 -0.14509809017181396 0.33173131942749023
0.6784313917160034 -0.16078436374664307 0.42618703842163086
0.6941176652908325 -0.16078436374664307 0.42828798294067383
0.7098039388656616 -0.16078436374664307 0.33376455307006836
0.7254902124404907 -0.16078436374664307 0.3256959915161133
-0.7019608020782471 -0.17647063732147217 -0.4953794479370117
-0.686274528503418 -0.17647063732147217 -0.4996371269226074
-0.6705882549285889 -0.17647063732147217 -0.4975895881652832
-0.6549019813537598 -0.17647063732147217 -0.48832035064697266
-0.6392157077789307 -0.17647063732147217 -0.4769716262817383
-0.6235294342041016 -0.17647063732147217 -0.4664907455444336
0.6784313917160034 -0.17647063732147217 0.4216008186340332
0.6941176652908325 -0.17647063732147217 0.42191219329833984
0.7098039388656616 -0.17647063732147217 0.3478078842163086
0.7254902124404907 -0.17647063732147217 0.3183169364929199
-0.7176470756530762 -0.19215691089630127 -0.4585237503051758
-0.7019608020782471 -0.19215691089630127 -0.4435911178588867
-0.686274528503418 -0.19215691089630127 -0.4508838653564453
-0.6705882549285889 -0.19215691089630127 -0.4284977912902832
-0.6392157077789307 -0.19215691089630127 -0.4754619598388672
-0.6235294342041016 -0.19215691089630127 -0.4588947296142578
-0.6078431606292725 -0.19215691089630127 -0.4478263854980469
-0.5921568870544434 -0.19215691089630127 -0.4373660087585449
-0.5764706134796143 -0.19215691089630127 -0.43131160736083984
-0.5607843399047852 -0.19215691089630127 -0.42591285705566406
-0.545098066329956 -0.19215691089630127 -0.42295074462890625
0.6784313917160034 -0.19215691089630127 0.41768741607666016
0.6941176652908325 -0.19215691089630127 0.41504478454589844
0.7098039388656616 -0.19215691089630127 0.34873247146606445
0.7254902124404907 -0.19215691089630127 0.3124079704284668
-0.7176470756530762 -0.20784318447113037 -0.44199609756469727
-0.7019608020782471 -0.20784318447113037 -0.43680381774902344
-0.686274528503418 -0.20784318447113037 -0.4457564353942871
-0.6705882549285889 -0.20784318447113037 -0.42339134216308594
-0.6549019813537598 -0.20784318447113037 -0.4137401580810547
-0.6392157077789307 -0.20784318447113037 -0.4066128730773926
-0.6235294342041016 -0.20784318447113037 -0.40029096603393555
-0.6078431606292725 -0.20784318447113037 -0.3940567970275879
-0.5921568870544434 -0.20784318447113037 -0.3889193534851074
-0.5764706134796143 -0.20784318447113037 -0.4330010414123535
-0.5607843399047852 -0.20784318447113037 -0.42417383193969727
-0.545098066329956 -0.20784318447113037 -0.41616344451904297
-0.529411792755127 -0.20784318447113037 -0.40837621688842773
0.6784313917160034 -0.20784318447113037 0.41428089141845703
0.6941176652908325 -0.20784318447113037 0.40812253952026367
0.7098039388656616 -0.20784318447113037 0.34762096405029297
0.7254902124404907 -0.20784318447113037 0.30745840072631836
-0.7176470756530762 -0.22352945804595947 -0.43965911865234375
-0.7019608020782471 -0.22352945804595947 -0.43949270248413086
-0.686274528503418 -0.22352945804595947 -0.5141868591308594
-0.5921568870544434 -0.22352945804595947 -0.3841228485107422
-0.5764706134796143 -0.22352945804595947 -0.37044525146484375
-0.5607843399047852 -0.22352945804595947 -0.3627934455871582
-0.5137255191802979 -0.22352945804595947 -0.3964204788208008
-0.498039186000824 -0.22352945804595947 -0.38902950286865234
0.6784313917160034 -0.22352945804595947 0.40892696380615234
0.6941176652908325 -0.22352945804595947 0.4019050598144531
0.7098039388656616 -0.22352945804595947 0.3398313522338867
0.7254902124404907 -0.22352945804595947 0.30441808700561523
-0.7176470756530762 -0.23921573162078857 -0.4425625801086426
-0.7019608020782471 -0.23921573162078857 -0.4412350654602051
-0.686274528503418 -0.23921573162078857 -0.513667106628418
-0.545098066329956 -0.23921573162078857 -0.3477621078491211
-0.529411792755127 -0.23921573162078857 -0.3422670364379883
-0.498039186000824 -0.23921573162078857 -0.3876652717590332
-0.4823529124259949 -0.23921573162078857 -0.3790898323059082
-0.46666663885116577 -0.23921573162078857 -0.37338685989379883
0.6784313917160034 -0.23921573162078857 0.4034004211425781
0.6941176652908325 -0.23921573162078857 0.3937969207763672
0.7098039388656616 -0.23921573162078857 0.33332204818725586
0.7254902124404907 -0.23921573162078857 0.30069875717163086
-0.7176470756530762 -0.2549020051956177 -0.4459571838378906
-0.7019608020782471 -0.2549020051956177 -0.4431271553039551
-0.686274528503418 -0.2549020051956177 -0.5136685371398926
-0.529411792755127 -0.2549020051956177 -0.3366985321044922
-0.5137255191802979 -0.2549020051956177 -0.3257894515991211
-0.498039186000824 -0.2549020051956177 -0.32304811477661133
-0.46666663885116577 -0.2549020051956177 -0.36797618865966797
-0.45098036527633667 -0.2549020051956177 -0.3605504035949707
-0.43529409170150757 -0.2549020051956177 -0.35723304748535156
0.6784313917160034 -0.2549020051956177 0.3982253074645996
0.6941176652908325 -0.2549020051956177 0.3864154815673828
0.7098039388656616 -0.2549020051956177 0.32556772232055664
0.7254902124404907 -0.2549020051956177 0.29495859146118164
-0.7176470756530762 -0.2705882787704468 -0.44904184341430664
-0.7019608020782471 -0.2705882787704468 -0.4443693161010742
-0.686274528503418 -0.2705882787704468 -0.5148615837097168
-0.498039186000824 -0.2705882787704468 -0.31552839279174805
-0.4823529124259949 -0.2705882787704468 -0.30852746963500977
-0.46666663885116577 -0.2705882787704468 -0.3073239326477051
-0.43529409170150757 -0.2705882787704468 -0.35102128982543945
-0.41960781812667847 -0.2705882787704468 -0.3462367057800293
-0.40392154455184937 -0.2705882787704468 -0.3443937301635742
0.6784313917160034 -0.2705882787704468 0.3929886817932129
0.6941176652908325 -0.2705882787704468 0.3783454895019531
0.7098039388656616 -0.2705882787704468 0.3188309669494629
0.7254902124404907 -0.2705882787704468 0.28794384002685547
-0.7176470756530762 -0.2862745523452759 -0.4540705680847168
-0.7019608020782471 -0.2862745523452759 -0.4469470977783203
-0.686274528503418 -0.2862745523452759 -0.5179390907287598
-0.46666663885116577 -0.2862745523452759 -0.30033159255981445
-0.45098036527633667 -0.2862745523452759 -0.29384326934814453
-0.43529409170150757 -0.2862745523452759 -0.29469823837280273
-0.40392154455184937 -0.2862745523452759 -0.3378748893737793
-0.38823527097702026 -0.2862745523452759 -0.33185720443725586
-0.37254899740219116 -0.2862745523452759 -0.3280668258666992
0.6784313917160034 -0.2862745523452759 0.3870658874511719
0.6941176652908325 -0.2862745523452759 0.3736128807067871
0.7098039388656616 -0.2862745523452759 0.31530046463012695
0.7254902124404907 -0.2862745523452759 0.2821526527404785
-0.7176470756530762 -0.301960825920105 -0.4686446189880371
-0.7019608020782471 -0.301960825920105 -0.4500265121459961
-0.686274528503418 -0.301960825920105 -0.5219616889953613
-0.43529409170150757 -0.301960825920105 -0.28630638122558594
-0.41960781812667847 -0.301960825920105 -0.2791938781738281
-0.40392154455184937 -0.301960825920105 -0.2781810760498047
-0.37254899740219116 -0.301960825920105 -0.3233480453491211
-0.35686272382736206 -0.301960825920105 -0.31464719772338867
-0.34117645025253296 -0.301960825920105 -0.30832386016845703
0.6784313917160034 -0.301960825920105 0.38005685806274414
0.6941176652908325 -0.301960825920105 0.3685283660888672
0.7098039388656616 -0.301960825920105 0.31327152252197266
0.7254902124404907 -0.301960825920105 0.2768244743347168
-0.7176470756530762 -0.3176470994949341 -0.4804997444152832
-0.7019608020782471 -0.3176470994949341 -0.45416879653930664
-0.686274528503418 -0.3176470994949341 -0.5268826484680176
-0.40392154455184937 -0.3176470994949341 -0.26995277404785156
-0.38823527097702026 -0.3176470994949341 -0.26242733001708984
-0.37254899740219116 -0.3176470994949341 -0.26033687591552734
-0.34117645025253296 -0.3176470994949341 -0.30740785598754883
-0.32549017667770386 -0.3176470994949341 -0.2981104850769043
-0.30980390310287476 -0.3176470994949341 -0.29132556915283203
0.6784313917160034 -0.3176470994949341 0.37338876724243164
0.6941176652908325 -0.3176470994949341 0.36289215087890625
0.7098039388656616 -0.3176470994949341 0.3107166290283203
0.7254902124404907 -0.3176470994949341 0.2709026336669922
-0.7176470756530762 -0.3333333730697632 -0.47812557220458984
-0.7019608020782471 -0.3333333730697632 -0.4575772285461426
-0.686274528503418 -0.3333333730697632 -0.5292215347290039
-0.37254899740219116 -0.3333333730697632 -0.2536640167236328
-0.35686272382736206 -0.3333333730697632 -0.24623918533325195
-0.34117645025253296 -0.3333333730697632 -0.24362468719482422
-0.30980390310287476 -0.3333333730697632 -0.2916722297668457
-0.29411762952804565 -0.3333333730697632 -0.2831382751464844
-0.27843135595321655 -0.3333333730697632 -0.27778005599975586
0.6784313917160034 -0.3333333730697632 0.36669158935546875
0.6941176652908325 -0.3333333730697632 0.3559718132019043
0.7098039388656616 -0.3333333730697632 0.3057389259338379
0.7254902124404907 -0.3333333730697632 0.2647857666015625
-0.7176470756530762 -0.3490196466445923 -0.4767026901245117
-0.7019608020782471 -0.3490196466445923 -0.46178770065307617
-0.686274528503418 -0.3490196466445923 -0.5344915390014648
-0.34117645025253296 -0.3490196466445923 -0.2411479949951172
-0.32549017667770386 -0.3490196466445923 -0.23169803619384766
-0.30980390310287476 -0.3490196466445923 -0.22725296020507812
-0.26274508237838745 -0.3490196466445923 -0.26936817169189453
-0.24705880880355835 -0.3490196466445923 -0.2631087303161621
-0.23137253522872925 -0.3490196466445923 -0.259157657623291
0.6784313917160034 -0.3490196466445923 0.3596644401550293
0.6941176652908325 -0.3490196466445923 0.34990739822387695
0.7098039388656616 -0.3490196466445923 0.29860544204711914
0.7254902124404907 -0.3490196466445923 0.26039934158325195
-0.7176470756530762 -0.3647059202194214 -0.47608184814453125
-0.7019608020782471 -0.3647059202194214 -0.4669990539550781
-0.686274528503418 -0.3647059202194214 -0.5426144599914551
-0.29411762952804565 -0.3647059202194214 -0.21936416625976562
-0.27843135595321655 -0.3647059202194214 -0.2137737274169922
-0.26274508237838745 -0.3647059202194214 -0.21323871612548828
-0.23137253522872925 -0.3647059202194214 -0.25715160369873047
-0.21568626165390015 -0.3647059202194214 -0.2474074363708496
-0.19999998807907104 -0.3647059202194214 -0.24088811874389648
-0.18431371450424194 -0.3647059202194214 -0.23555660247802734
0.6784313917160034 -0.3647059202194214 0.35227441787719727
0.6941176652908325 -0.3647059202194214 0.3432750701904297
0.7098039388656616 -0.3647059202194214 0.2882828712463379
0.7254902124404907 -0.3647059202194214 0.2565159797668457
-0.7176470756530762 -0.3803921937942505 -0.4808626174926758
-0.7019608020782471 -0.3803921937942505 -0.47365808486938477
-0.686274528503418 -0.3803921937942505 -0.5514593124389648
-0.26274508237838745 -0.3803921937942505 -0.20601797103881836
-0.24705880880355835 -0.3803921937942505 -0.19887733459472656
-0.23137253522872925 -0.3803921937942505 -0.1928720474243164
-0.21568626165390015 -0.3803921937942505 -0.19039344787597656
-0.18431371450424194 -0.3803921937942505 -0.2320704460144043
-0.16862744092941284 -0.3803921937942505 -0.22237253189086914
-0.15294116735458374 -0.3803921937942505 -0.2145376205444336
-0.13725489377975464 -0.3803921937942505 -0.20934009552001953
0.6784313917160034 -0.3803921937942505 0.34613752365112305
0.6941176652908325 -0.3803921937942505 0.3382573127746582
0.7098039388656616 -0.3803921937942505 0.27569580078125
0.7254902124404907 -0.3803921937942505 0.25384521484375
-0.7176470756530762 -0.3960784673690796 -0.4843111038208008
-0.7019608020782471 -0.3960784673690796 -0.4788370132446289
-0.686274528503418 -0.3960784673690796 -0.5585432052612305
-0.21568626165390015 -0.3960784673690796 -0.18705463409423828
-0.19999998807907104 -0.3960784673690796 -0.17951393127441406
-0.18431371450424194 -0.3960784673690796 -0.17278289794921875
-0.16862744092941284 -0.3960784673690796 -0.16638612747192383
-0.13725489377975464 -0.3960784673690796 -0.2113361358642578
-0.12156862020492554 -0.3960784673690796 -0.20204925537109375
-0.10588234663009644 -0.3960784673690796 -0.19412660598754883
-0.09019607305526733 -0.3960784673690796 -0.18821096420288086
-0.07450979948043823 -0.3960784673690796 -0.18270444869995117
0.5529412031173706 -0.3960784673690796 0.1567072868347168
0.5686274766921997 -0.3960784673690796 0.1675858497619629
0.5843137502670288 -0.3960784673690796 0.1773366928100586
0.6000000238418579 -0.3960784673690796 0.18891191482543945
0.615686297416687 -0.3960784673690796 0.19934892654418945
0.6313725709915161 -0.3960784673690796 0.21164655685424805
0.6784313917160034 -0.3960784673690796 0.33710241317749023
0.6941176652908325 -0.3960784673690796 0.33522462844848633
0.7098039388656616 -0.3960784673690796 0.25319528579711914
0.7254902124404907 -0.3960784673690796 0.2490558624267578
-0.7176470756530762 -0.4117647409439087 -0.48902130126953125
-0.7019608020782471 -0.4117647409439087 -0.4836568832397461
-0.686274528503418 -0.4117647409439087 -0.5659546852111816
-0.16862744092941284 -0.4117647409439087 -0.1698317527770996
-0.15294116735458374 -0.4117647409439087 -0.15682411193847656
-0.13725489377975464 -0.4117647409439087 -0.14825963973999023
-0.12156862020492554 -0.4117647409439087 -0.14223861694335938
-0.10588234663009644 -0.4117647409439087 -0.13835763931274414
-0.07450979948043823 -0.4117647409439087 -0.18179655075073242
-0.05882352590560913 -0.4117647409439087 -0.17229795455932617
-0.04313725233078003 -0.4117647409439087 -0.16357803344726562
-0.027450978755950928 -0.4117647409439087 -0.1551675796508789
-0.011764705181121826 -0.4117647409439087 -0.15084218978881836
0.003921627998352051 -0.4117647409439087 -0.14811325073242188
0.4745098352432251 -0.4117647409439087 0.11801433563232422
0.4901961088180542 -0.4117647409439087 0.13010406494140625
0.5058823823928833 -0.4117647409439087 0.14147472381591797
0.5215686559677124 -0.4117647409439087 0.1486492156982422
0.5372549295425415 -0.4117647409439087 0.1959991455078125
0.5529412031173706 -0.4117647409439087 0.2061457633972168
0.5686274766921997 -0.4117647409439087 0.21402597427368164
0.5843137502670288 -0.4117647409439087 0.21911907196044922
0.6313725709915161 -0.4117647409439087 0.2187356948852539
0.6470588445663452 -0.4117647409439087 0.24322986602783203
0.6627451181411743 -0.4117647409439087 0.25461721420288086
0.6784313917160034 -0.4117647409439087 0.3017597198486328
0.6941176652908325 -0.4117647409439087 0.3338499069213867
0.7098039388656616 -0.4117647409439087 0.24738311767578125
0.7254902124404907 -0.4117647409439087 0.24479436874389648
-0.7176470756530762 -0.4274510145187378 -0.49355030059814453
-0.7019608020782471 -0.4274510145187378 -0.48759937286376953
-0.686274528503418 -0.4274510145187378 -0.5726876258850098
-0.10588234663009644 -0.4274510145187378 -0.13585376739501953
-0.09019607305526733 -0.4274510145187378 -0.12790918350219727
-0.07450979948043823 -0.4274510145187378 -0.12090301513671875
-0.05882352590560913 -0.4274510145187378 -0.11435651779174805
-0.04313725233078003 -0.4274510145187378 -0.10682201385498047
-0.027450978755950928 -0.4274510145187378 -0.10308170318603516
0.003921627998352051 -0.4274510145187378 -0.14559125900268555
0.019607901573181152 -0.4274510145187378 -0.1378464698791504
0.035294175148010254 -0.4274510145187378 -0.12690401077270508
0.050980448722839355 -0.4274510145187378 -0.11663532257080078
0.06666672229766846 -0.4274510145187378 -0.10525035858154297
0.08235299587249756 -0.4274510145187378 -0.09550809860229492
0.09803926944732666 -0.4274510145187378 -0.08797740936279297
0.11372554302215576 -0.4274510145187378 -0.08385992050170898
0.12941181659698486 -0.4274510145187378 -0.08133268356323242
0.3647059202194214 -0.4274510145187378 0.05252885818481445
0.3803921937942505 -0.4274510145187378 0.06401968002319336
0.3960784673690796 -0.4274510145187378 0.07624149322509766
0.4117647409439087 -0.4274510145187378 0.08675241470336914
0.4274510145187378 -0.4274510145187378 0.09644365310668945
0.4431372880935669 -0.4274510145187378 0.10524272918701172
0.458823561668396 -0.4274510145187378 0.15552425384521484
0.4745098352432251 -0.4274510145187378 0.16963768005371094
0.4901961088180542 -0.4274510145187378 0.17704296112060547
0.5058823823928833 -0.4274510145187378 0.18404436111450195
0.5215686559677124 -0.4274510145187378 0.19004344940185547
0.5372549295425415 -0.4274510145187378 0.19556093215942383
0.5843137502670288 -0.4274510145187378 0.22135639190673828
0.6000000238418579 -0.4274510145187378 0.23247957229614258
0.615686297416687 -0.4274510145187378 0.2412862777709961
0.6313725709915161 -0.4274510145187378 0.2487030029296875
0.6470588445663452 -0.4274510145187378 0.2541828155517578
0.6627451181411743 -0.4274510145187378 0.25699520111083984
0.6784313917160034 -0.4274510145187378 0.25819969177246094
0.6941176652908325 -0.4274510145187378 0.332033634185791
0.7098039388656616 -0.4274510145187378 0.2452249526977539
0.7254902124404907 -0.4274510145187378 0.24107646942138672
-0.7176470756530762 -0.4431372880935669 -0.5054035186767578
-0.7019608020782471 -0.4431372880935669 -0.4936971664428711
-0.686274528503418 -0.4431372880935669 -0.5791916847229004
-0.04313725233078003 -0.4431372880935669 -0.10967016220092773
-0.027450978755950928 -0.4431372880935669 -0.09691238403320312
-0.011764705181121826 -0.4431372880935669 -0.08590221405029297
0.003921627998352051 -0.4431372880935669 -0.07657814025878906
0.019607901573181152 -0.4431372880935669 -0.06915473937988281
0.035294175148010254 -0.4431372880935669 -0.06073331832885742
0.050980448722839355 -0.4431372880935669 -0.053666114807128906
0.06666672229766846 -0.4431372880935669 -0.0508570671081543
0.09803926944732666 -0.4431372880935669 -0.09093141555786133
0.11372554302215576 -0.4431372880935669 -0.08135604858398438
0.12941181659698486 -0.4431372880935669 -0.07091093063354492
