ply
format ascii 1.0
element vertex 795
property float x
property float y
property float z
end_header
-0.18431371450424194 0.5607843399047852 -0.16867780685424805
0.06666672229766846 0.5607843399047852 0.08895444869995117
0.08235299587249756 0.5607843399047852 0.09541845321655273
-0.24705880880355835 0.545098066329956 -0.18325471878051758
-0.23137253522872925 0.545098066329956 -0.17902231216430664
0.08235299587249756 0.545098066329956 0.1206507682800293
-0.27843135595321655 0.529411792755127 -0.19119739532470703
-0.26274508237838745 0.529411792755127 -0.18709659576416016
0.08235299587249756 0.529411792755127 0.1365804672241211
0.09803926944732666 0.529411792755127 0.11104583740234375
0.4901961088180542 0.529411792755127 0.5238828659057617
0.5058823823928833 0.529411792755127 0.5380630493164062
0.5215686559677124 0.529411792755127 0.5726304054260254
-0.30980390310287476 0.5137255191802979 -0.19480657577514648
-0.29411762952804565 0.5137255191802979 -0.19135522842407227
-0.27843135595321655 0.5137255191802979 -0.1946401596069336
0.08235299587249756 0.5137255191802979 0.15900182723999023
0.09803926944732666 0.5137255191802979 0.1451711654663086
0.4431372880935669 0.5137255191802979 0.5080223083496094
0.458823561668396 0.5137255191802979 0.5156583786010742
0.4745098352432251 0.5137255191802979 0.5186276435852051
0.4901961088180542 0.5137255191802979 0.5165081024169922
0.5215686559677124 0.5137255191802979 0.5963382720947266
0.5372549295425415 0.5137255191802979 0.5357813835144043
-0.32549017667770386 0.498039186000824 -0.1918034553527832
-0.30980390310287476 0.498039186000824 -0.19391679763793945
0.08235299587249756 0.498039186000824 0.18434906005859375
0.09803926944732666 0.498039186000824 0.1740727424621582
0.11372554302215576 0.498039186000824 0.10527563095092773
0.4117647409439087 0.498039186000824 0.5021324157714844
0.4274510145187378 0.498039186000824 0.5076651573181152
0.4431372880935669 0.498039186000824 0.508552074432373
0.5215686559677124 0.498039186000824 0.6178522109985352
0.5372549295425415 0.498039186000824 0.5339412689208984
-0.35686272382736206 0.4823529124259949 -0.19190168380737305
-0.34117645025253296 0.4823529124259949 -0.1899728775024414
0.08235299587249756 0.4823529124259949 0.20984840393066406
0.09803926944732666 0.4823529124259949 0.19075489044189453
0.11372554302215576 0.4823529124259949 0.11105060577392578
0.3803921937942505 0.4823529124259949 0.4936842918395996
0.3960784673690796 0.4823529124259949 0.49764108657836914
0.4117647409439087 0.4823529124259949 0.4946112632751465
0.5215686559677124 0.4823529124259949 0.6407909393310547
0.5372549295425415 0.4823529124259949 0.5240926742553711
0.5529412031173706 0.4823529124259949 0.5214390754699707
-0.37254899740219116 0.46666663885116577 -0.18508291244506836
-0.35686272382736206 0.46666663885116577 -0.1876049041748047
-0.18431371450424194 0.46666663885116577 -0.00655364990234375
-0.16862744092941284 0.46666663885116577 0.009081840515136719
-0.15294116735458374 0.46666663885116577 0.026047229766845703
-0.13725489377975464 0.46666663885116577 0.04465770721435547
-0.12156862020492554 0.46666663885116577 0.0530695915222168
0.08235299587249756 0.46666663885116577 0.23723173141479492
0.11372554302215576 0.46666663885116577 0.10566425323486328
0.12941181659698486 0.46666663885116577 0.10750532150268555
0.3333333730697632 0.46666663885116577 0.4763803482055664
0.3490196466445923 0.46666663885116577 0.4840278625488281
0.3647059202194214 0.46666663885116577 0.48588132858276367
0.4901961088180542 0.46666663885116577 0.6438841819763184
0.5058823823928833 0.46666663885116577 0.6528306007385254
0.5215686559677124 0.46666663885116577 0.6577310562133789
0.5529412031173706 0.46666663885116577 0.5180950164794922
-0.38823527097702026 0.45098036527633667 -0.17653226852416992
-0.37254899740219116 0.45098036527633667 -0.1837172508239746
-0.21568626165390015 0.45098036527633667 -0.018772602081298828
-0.19999998807907104 0.45098036527633667 -0.01219940185546875
-0.18431371450424194 0.45098036527633667 -0.007447242736816406
-0.16862744092941284 0.45098036527633667 -0.004241466522216797
-0.12156862020492554 0.45098036527633667 0.07680034637451172
-0.10588234663009644 0.45098036527633667 0.05798625946044922
0.08235299587249756 0.45098036527633667 0.266481876373291
0.11372554302215576 0.45098036527633667 0.05596446990966797
0.12941181659698486 0.45098036527633667 0.1099085807800293
0.14509809017181396 0.45098036527633667 0.05298900604248047
0.301960825920105 0.45098036527633667 0.46821022033691406
0.3176470994949341 0.45098036527633667 0.4732193946838379
0.3333333730697632 0.45098036527633667 0.47325897216796875
0.458823561668396 0.45098036527633667 0.6360721588134766
0.4745098352432251 0.45098036527633667 0.6426486968994141
0.4901961088180542 0.45098036527633667 0.645960807800293
0.5215686559677124 0.45098036527633667 0.6542859077453613
0.5372549295425415 0.45098036527633667 0.6518664360046387
0.5529412031173706 0.45098036527633667 0.5055365562438965
0.5686274766921997 0.45098036527633667 0.5064296722412109
-0.40392154455184937 0.43529409170150757 -0.16536617279052734
-0.38823527097702026 0.43529409170150757 -0.17687511444091797
-0.24705880880355835 0.43529409170150757 -0.024985313415527344
-0.23137253522872925 0.43529409170150757 -0.021090030670166016
-0.21568626165390015 0.43529409170150757 -0.02389812469482422
-0.12156862020492554 0.43529409170150757 0.0948491096496582
-0.10588234663009644 0.43529409170150757 0.09688520431518555
0.08235299587249756 0.43529409170150757 0.29799509048461914
0.09803926944732666 0.43529409170150757 0.2967972755432129
0.12941181659698486 0.43529409170150757 0.10707807540893555
0.14509809017181396 0.43529409170150757 0.09869623184204102
0.2549020051956177 0.43529409170150757 0.4532155990600586
0.2705882787704468 0.43529409170150757 0.46109437942504883
0.2862745523452759 0.43529409170150757 0.4635500907897949
0.301960825920105 0.43529409170150757 0.4535541534423828
0.4117647409439087 0.43529409170150757 0.6161479949951172
0.4274510145187378 0.43529409170150757 0.6269650459289551
0.4431372880935669 0.43529409170150757 0.6307873725891113
0.458823561668396 0.43529409170150757 0.6295919418334961
0.5372549295425415 0.43529409170150757 0.6508684158325195
0.5686274766921997 0.43529409170150757 0.5037946701049805
-0.41960781812667847 0.41960781812667847 -0.1534557342529297
-0.40392154455184937 0.41960781812667847 -0.16552162170410156
-0.26274508237838745 0.41960781812667847 -0.021908283233642578
-0.24705880880355835 0.41960781812667847 -0.02295207977294922
-0.12156862020492554 0.41960781812667847 0.1216421127319336
-0.10588234663009644 0.41960781812667847 0.10998010635375977
-0.09019607305526733 0.41960781812667847 0.051482200622558594
0.08235299587249756 0.41960781812667847 0.3158230781555176
0.09803926944732666 0.41960781812667847 0.33673524856567383
0.12941181659698486 0.41960781812667847 0.08722591400146484
0.14509809017181396 0.41960781812667847 0.051423072814941406
0.16078436374664307 0.41960781812667847 0.04540729522705078
0.22352945804595947 0.41960781812667847 0.43836450576782227
0.23921573162078857 0.41960781812667847 0.44656801223754883
0.2549020051956177 0.41960781812667847 0.449826717376709
0.3803921937942505 0.41960781812667847 0.6101570129394531
0.3960784673690796 0.41960781812667847 0.6167922019958496
0.4117647409439087 0.41960781812667847 0.6193990707397461
0.5372549295425415 0.41960781812667847 0.6418886184692383
0.5529412031173706 0.41960781812667847 0.6387791633605957
0.5843137502670288 0.41960781812667847 0.49570655822753906
-0.43529409170150757 0.40392154455184937 -0.14127540588378906
-0.41960781812667847 0.40392154455184937 -0.15140819549560547
-0.27843135595321655 0.40392154455184937 -0.015125751495361328
-0.26274508237838745 0.40392154455184937 -0.021573543548583984
-0.13725489377975464 0.40392154455184937 0.13421916961669922
-0.12156862020492554 0.40392154455184937 0.13261699676513672
-0.09019607305526733 0.40392154455184937 0.049456119537353516
0.09803926944732666 0.40392154455184937 0.3526906967163086
0.11372554302215576 0.40392154455184937 0.36688852310180664
0.12941181659698486 0.40392154455184937 0.3826308250427246
0.14509809017181396 0.40392154455184937 0.400726318359375
0.16078436374664307 0.40392154455184937 0.41658878326416016
0.17647063732147217 0.40392154455184937 0.4275636672973633
0.19215691089630127 0.40392154455184937 0.4319281578063965
0.20784318447113037 0.40392154455184937 0.4302101135253906
0.22352945804595947 0.40392154455184937 0.3678460121154785
0.23921573162078857 0.40392154455184937 0.33985376358032227
0.3333333730697632 0.40392154455184937 0.5915923118591309
0.3490196466445923 0.40392154455184937 0.6022558212280273
0.3647059202194214 0.40392154455184937 0.6069645881652832
0.3803921937942505 0.40392154455184937 0.6072969436645508
0.5529412031173706 0.40392154455184937 0.6367697715759277
0.5843137502670288 0.40392154455184937 0.4914684295654297
0.6000000238418579 0.40392154455184937 0.48220062255859375
-0.45098036527633667 0.38823527097702026 -0.12835407257080078
-0.43529409170150757 0.38823527097702026 -0.13400793075561523
-0.29411762952804565 0.38823527097702026 -0.0035991668701171875
-0.27843135595321655 0.38823527097702026 -0.0038166046142578125
-0.15294116735458374 0.38823527097702026 0.14609813690185547
-0.13725489377975464 0.38823527097702026 0.14492034912109375
-0.09019607305526733 0.38823527097702026 0.03519010543823242
-0.07450979948043823 0.38823527097702026 0.03590202331542969
0.09803926944732666 0.38823527097702026 0.3318004608154297
0.11372554302215576 0.38823527097702026 0.32830142974853516
0.12941181659698486 0.38823527097702026 0.3852572441101074
0.14509809017181396 0.38823527097702026 0.40276145935058594
0.16078436374664307 0.38823527097702026 0.4089784622192383
0.17647063732147217 0.38823527097702026 -0.001132965087890625
0.23921573162078857 0.38823527097702026 0.32242298126220703
0.2549020051956177 0.38823527097702026 0.32949018478393555
0.301960825920105 0.38823527097702026 0.5825862884521484
0.3176470994949341 0.38823527097702026 0.5911164283752441
0.3333333730697632 0.38823527097702026 0.5957551002502441
0.5529412031173706 0.38823527097702026 0.6235828399658203
0.5686274766921997 0.38823527097702026 0.6236262321472168
0.6000000238418579 0.38823527097702026 0.4829864501953125
-0.45098036527633667 0.37254899740219116 -0.11463308334350586
-0.29411762952804565 0.37254899740219116 0.025772571563720703
-0.16862744092941284 0.37254899740219116 0.15154695510864258
-0.15294116735458374 0.37254899740219116 0.1507282257080078
-0.07450979948043823 0.37254899740219116 0.030260562896728516
0.11372554302215576 0.37254899740219116 0.3205232620239258
0.12941181659698486 0.37254899740219116 0.29813385009765625
0.16078436374664307 0.37254899740219116 0.028064727783203125
0.17647063732147217 0.37254899740219116 1.9073486328125e-05
0.2549020051956177 0.37254899740219116 0.358309268951416
0.2705882787704468 0.37254899740219116 0.572749137878418
0.2862745523452759 0.37254899740219116 0.5784487724304199
0.301960825920105 0.37254899740219116 0.5803489685058594
0.5686274766921997 0.37254899740219116 0.6183505058288574
0.6000000238418579 0.37254899740219116 0.4744877815246582
0.615686297416687 0.37254899740219116 0.46686744689941406
-0.46666663885116577 0.35686272382736206 -0.0931544303894043
-0.29411762952804565 0.35686272382736206 0.05167102813720703
-0.19999998807907104 0.35686272382736206 0.1464848518371582
-0.18431371450424194 0.35686272382736206 0.15085315704345703
-0.16862744092941284 0.35686272382736206 0.14689874649047852
-0.07450979948043823 0.35686272382736206 0.014309406280517578
-0.05882352590560913 0.35686272382736206 0.021245956420898438
0.12941181659698486 0.35686272382736206 0.30809736251831055
0.17647063732147217 0.35686272382736206 -0.0023093223571777344
0.19215691089630127 0.35686272382736206 -0.0015077590942382812
0.22352945804595947 0.35686272382736206 0.5491213798522949
0.23921573162078857 0.35686272382736206 0.5572447776794434
0.2549020051956177 0.35686272382736206 0.5647616386413574
0.2705882787704468 0.35686272382736206 0.5137476921081543
0.5686274766921997 0.35686272382736206 0.6002364158630371
0.5843137502670288 0.35686272382736206 0.605900764465332
0.615686297416687 0.35686272382736206 0.46504974365234375
-0.4823529124259949 0.34117645025253296 -0.07768774032592773
-0.46666663885116577 0.34117645025253296 -0.08184289932250977
-0.27843135595321655 0.34117645025253296 0.09439229965209961
-0.26274508237838745 0.34117645025253296 0.11138343811035156
-0.24705880880355835 0.34117645025253296 0.12540149688720703
-0.23137253522872925 0.34117645025253296 0.13453388214111328
-0.21568626165390015 0.34117645025253296 0.14049339294433594
-0.19999998807907104 0.34117645025253296 0.1391773223876953
-0.05882352590560913 0.34117645025253296 0.015204429626464844
0.12941181659698486 0.34117645025253296 0.31558752059936523
0.14509809017181396 0.34117645025253296 0.2986111640930176
0.17647063732147217 0.34117645025253296 0.5197386741638184
0.19215691089630127 0.34117645025253296 0.5336031913757324
0.20784318447113037 0.34117645025253296 0.5419154167175293
0.22352945804595947 0.34117645025253296 0.542813777923584
0.2705882787704468 0.34117645025253296 0.27734851837158203
0.5843137502670288 0.34117645025253296 0.5982394218444824
0.615686297416687 0.34117645025253296 0.45406389236450195
0.6313725709915161 0.34117645025253296 0.4497036933898926
-0.4823529124259949 0.32549017667770386 -0.0581974983215332
-0.27843135595321655 0.32549017667770386 0.05618906021118164
-0.26274508237838745 0.32549017667770386 0.07998991012573242
-0.04313725233078003 0.32549017667770386 0.011168956756591797
0.14509809017181396 0.32549017667770386 0.5139675140380859
0.16078436374664307 0.32549017667770386 0.5193266868591309
0.17647063732147217 0.32549017667770386 0.522493839263916
0.19215691089630127 0.32549017667770386 0.03083181381225586
0.20784318447113037 0.32549017667770386 0.03157997131347656
0.2705882787704468 0.32549017667770386 0.26805925369262695
0.2862745523452759 0.32549017667770386 0.25863170623779297
0.6000000238418579 0.32549017667770386 0.5871076583862305
0.6313725709915161 0.32549017667770386 0.4450254440307617
-0.4823529124259949 0.30980390310287476 -0.043170928955078125
-0.26274508237838745 0.30980390310287476 0.0439143180847168
-0.04313725233078003 0.30980390310287476 0.005244255065917969
-0.027450978755950928 0.30980390310287476 0.0027065277099609375
0.11372554302215576 0.30980390310287476 0.5097670555114746
0.12941181659698486 0.30980390310287476 0.5107002258300781
0.14509809017181396 0.30980390310287476 0.5080718994140625
0.16078436374664307 0.30980390310287476 0.3372478485107422
0.19215691089630127 0.30980390310287476 0.022840023040771484
0.20784318447113037 0.30980390310287476 0.02571868896484375
0.2862745523452759 0.30980390310287476 0.2507486343383789
0.6000000238418579 0.30980390310287476 0.5783724784851074
0.615686297416687 0.30980390310287476 0.5702962875366211
0.6313725709915161 0.30980390310287476 0.43030643463134766
0.6470588445663452 0.30980390310287476 0.4295501708984375
-0.498039186000824 0.29411762952804565 -0.028018951416015625
-0.4823529124259949 0.29411762952804565 -0.027227401733398438
-0.26274508237838745 0.29411762952804565 0.031366825103759766
-0.24705880880355835 0.29411762952804565 0.02465963363647461
-0.027450978755950928 0.29411762952804565 0.0032181739807128906
0.06666672229766846 0.29411762952804565 0.49764347076416016
0.08235299587249756 0.29411762952804565 0.5069031715393066
0.09803926944732666 0.29411762952804565 0.5087089538574219
0.11372554302215576 0.29411762952804565 0.5028190612792969
0.16078436374664307 0.29411762952804565 0.35308408737182617
0.17647063732147217 0.29411762952804565 0.07747650146484375
0.20784318447113037 0.29411762952804565 0.014276981353759766
0.22352945804595947 0.29411762952804565 0.0438380241394043
0.2862745523452759 0.29411762952804565 0.23204803466796875
0.301960825920105 0.29411762952804565 0.23263883590698242
0.615686297416687 0.29411762952804565 0.5693635940551758
0.6470588445663452 0.29411762952804565 0.4248652458190918
-0.498039186000824 0.27843135595321655 -0.0026216506958007812
-0.4823529124259949 0.27843135595321655 -0.0020513534545898438
-0.24705880880355835 0.27843135595321655 0.020175457000732422
-0.027450978755950928 0.27843135595321655 -0.002918720245361328
-0.011764705181121826 0.27843135595321655 -0.005835533142089844
0.035294175148010254 0.27843135595321655 0.4910435676574707
0.050980448722839355 0.27843135595321655 0.497434139251709
0.06666672229766846 0.27843135595321655 0.5002169609069824
0.16078436374664307 0.27843135595321655 0.3373904228210449
0.17647063732147217 0.27843135595321655 0.3257722854614258
0.20784318447113037 0.27843135595321655 0.004523754119873047
0.22352945804595947 0.27843135595321655 0.03284454345703125
0.23921573162078857 0.27843135595321655 0.034983158111572266
0.301960825920105 0.27843135595321655 0.2256331443786621
0.615686297416687 0.27843135595321655 0.5588021278381348
0.6313725709915161 0.27843135595321655 0.553131103515625
0.6470588445663452 0.27843135595321655 0.40857553482055664
0.6627451181411743 0.27843135595321655 0.4122891426086426
-0.498039186000824 0.26274508237838745 0.021133899688720703
-0.4823529124259949 0.26274508237838745 0.02603769302368164
-0.24705880880355835 0.26274508237838745 0.004084587097167969
-0.23137253522872925 0.26274508237838745 0.006305694580078125
-0.011764705181121826 0.26274508237838745 -0.005183696746826172
0.003921627998352051 0.26274508237838745 0.4876556396484375
0.019607901573181152 0.26274508237838745 0.4908561706542969
0.035294175148010254 0.26274508237838745 0.4898409843444824
0.17647063732147217 0.26274508237838745 0.31939125061035156
0.19215691089630127 0.26274508237838745 0.008348464965820312
0.22352945804595947 0.26274508237838745 -0.008046627044677734
0.23921573162078857 0.26274508237838745 0.028478622436523438
0.3176470994949341 0.26274508237838745 0.21691560745239258
0.6313725709915161 0.26274508237838745 0.5508208274841309
0.6627451181411743 0.26274508237838745 0.40468740463256836
-0.498039186000824 0.24705880880355835 0.04318809509277344
-0.4823529124259949 0.24705880880355835 0.049846649169921875
-0.46666663885116577 0.24705880880355835 -0.028645992279052734
-0.23137253522872925 0.24705880880355835 -0.0029807090759277344
-0.04313725233078003 0.24705880880355835 0.4811983108520508
-0.027450978755950928 0.24705880880355835 0.48711490631103516
-0.011764705181121826 0.24705880880355835 0.4862651824951172
0.003921627998352051 0.24705880880355835 0.47983646392822266
0.17647063732147217 0.24705880880355835 0.3008136749267578
0.19215691089630127 0.24705880880355835 0.2954282760620117
0.23921573162078857 0.24705880880355835 0.01928234100341797
0.2549020051956177 0.24705880880355835 -0.049803733825683594
0.3176470994949341 0.24705880880355835 0.2076425552368164
0.3333333730697632 0.24705880880355835 0.20224761962890625
0.6313725709915161 0.24705880880355835 0.5391683578491211
0.6470588445663452 0.24705880880355835 0.5364899635314941
0.6784313917160034 0.24705880880355835 0.3928837776184082
-0.498039186000824 0.23137253522872925 0.06424951553344727
-0.4823529124259949 0.23137253522872925 0.07048463821411133
-0.46666663885116577 0.23137253522872925 -0.028800487518310547
-0.45098036527633667 0.23137253522872925 -0.04297637939453125
-0.23137253522872925 0.23137253522872925 -0.030432701110839844
-0.21568626165390015 0.23137253522872925 -0.014663219451904297
-0.07450979948043823 0.23137253522872925 0.47795629501342773
-0.05882352590560913 0.23137253522872925 0.4821004867553711
-0.04313725233078003 0.23137253522872925 0.48377418518066406
0.003921627998352051 0.23137253522872925 -0.007056236267089844
0.19215691089630127 0.23137253522872925 0.29245948791503906
0.20784318447113037 0.23137253522872925 0.050176143646240234
0.23921573162078857 0.23137253522872925 0.008294105529785156
0.2549020051956177 0.23137253522872925 0.004367828369140625
0.3333333730697632 0.23137253522872925 0.2000732421875
0.6470588445663452 0.23137253522872925 0.533416748046875
0.6784313917160034 0.23137253522872925 0.3826003074645996
0.6941176652908325 0.23137253522872925 0.3755979537963867
-0.498039186000824 0.21568626165390015 0.08350038528442383
-0.4823529124259949 0.21568626165390015 0.0909872055053711
-0.45098036527633667 0.21568626165390015 -0.039488792419433594
-0.21568626165390015 0.21568626165390015 -0.024132728576660156
-0.12156862020492554 0.21568626165390015 0.46607494354248047
-0.10588234663009644 0.21568626165390015 0.4728226661682129
-0.09019607305526733 0.21568626165390015 0.47517967224121094
-0.07450979948043823 0.21568626165390015 0.47206687927246094
0.003921627998352051 0.21568626165390015 -0.019100189208984375
0.019607901573181152 0.21568626165390015 -0.01577615737915039
0.20784318447113037 0.21568626165390015 0.27742671966552734
0.2549020051956177 0.21568626165390015 -0.0008592605590820312
0.2705882787704468 0.21568626165390015 -0.0693049430847168
0.3333333730697632 0.21568626165390015 0.1865072250366211
0.3490196466445923 0.21568626165390015 0.18752002716064453
0.6470588445663452 0.21568626165390015 0.5199050903320312
0.6627451181411743 0.21568626165390015 0.5195212364196777
0.6941176652908325 0.21568626165390015 0.3712167739868164
-0.498039186000824 0.19999998807907104 0.10367202758789062
-0.4823529124259949 0.19999998807907104 0.10927772521972656
-0.45098036527633667 0.19999998807907104 -0.047257423400878906
-0.43529409170150757 0.19999998807907104 -0.05513811111450195
-0.21568626165390015 0.19999998807907104 -0.03389692306518555
-0.19999998807907104 0.19999998807907104 -0.029214859008789062
-0.15294116735458374 0.19999998807907104 0.46240663528442383
-0.13725489377975464 0.19999998807907104 0.46695566177368164
-0.12156862020492554 0.19999998807907104 0.4684429168701172
0.019607901573181152 0.19999998807907104 -0.022283554077148438
0.20784318447113037 0.19999998807907104 0.27117013931274414
0.22352945804595947 0.19999998807907104 0.07023000717163086
0.2549020051956177 0.19999998807907104 -0.007740974426269531
0.2705882787704468 0.19999998807907104 -0.01656818389892578
0.3490196466445923 0.19999998807907104 0.18276548385620117
0.6627451181411743 0.19999998807907104 0.5150618553161621
0.6941176652908325 0.19999998807907104 0.35841989517211914
0.7098039388656616 0.19999998807907104 0.3556804656982422
-0.498039186000824 0.18431371450424194 0.12465238571166992
-0.4823529124259949 0.18431371450424194 0.12149190902709961
-0.43529409170150757 0.18431371450424194 -0.05840873718261719
-0.19999998807907104 0.18431371450424194 -0.026669025421142578
-0.18431371450424194 0.18431371450424194 0.4594283103942871
-0.16862744092941284 0.18431371450424194 0.460784912109375
-0.15294116735458374 0.18431371450424194 0.45829248428344727
0.035294175148010254 0.18431371450424194 -0.032375335693359375
0.22352945804595947 0.18431371450424194 0.2602205276489258
0.2705882787704468 0.18431371450424194 -0.020813941955566406
0.2862745523452759 0.18431371450424194 -0.09856986999511719
0.3490196466445923 0.18431371450424194 0.16878509521484375
0.3647059202194214 0.18431371450424194 0.17483282089233398
0.6784313917160034 0.18431371450424194 0.5030117034912109
0.7098039388656616 0.18431371450424194 0.35121631622314453
-0.498039186000824 0.16862744092941284 0.1441326141357422
-0.46666663885116577 0.16862744092941284 0.0656132698059082
-0.43529409170150757 0.16862744092941284 -0.06583786010742188
-0.41960781812667847 0.16862744092941284 -0.07705020904541016
-0.23137253522872925 0.16862744092941284 0.4537811279296875
-0.21568626165390015 0.16862744092941284 0.4570193290710449
-0.19999998807907104 0.16862744092941284 0.4577322006225586
-0.18431371450424194 0.16862744092941284 0.00045299530029296875
0.035294175148010254 0.16862744092941284 -0.039841651916503906
0.22352945804595947 0.16862744092941284 0.2542586326599121
0.23921573162078857 0.16862744092941284 0.24184465408325195
0.2705882787704468 0.16862744092941284 -0.05951881408691406
0.2862745523452759 0.16862744092941284 -0.03179168701171875
0.3647059202194214 0.16862744092941284 0.1705646514892578
0.6784313917160034 0.16862744092941284 0.4959559440612793
0.6941176652908325 0.16862744092941284 0.48221778869628906
0.7098039388656616 0.16862744092941284 0.33669281005859375
0.7254902124404907 0.16862744092941284 0.33743715286254883
-0.5137255191802979 0.15294116735458374 0.15895652770996094
-0.498039186000824 0.15294116735458374 0.15105581283569336
-0.46666663885116577 0.15294116735458374 0.07663917541503906
-0.41960781812667847 0.15294116735458374 -0.08196830749511719
-0.26274508237838745 0.15294116735458374 0.4531526565551758
-0.24705880880355835 0.15294116735458374 0.4550919532775879
-0.23137253522872925 0.15294116735458374 0.4522099494934082
-0.18431371450424194 0.15294116735458374 -0.02662038803100586
-0.16862744092941284 0.15294116735458374 -0.028889179229736328
0.050980448722839355 0.15294116735458374 -0.049111366271972656
0.23921573162078857 0.15294116735458374 0.24545574188232422
0.2862745523452759 0.15294116735458374 -0.038303375244140625
0.301960825920105 0.15294116735458374 -0.1260509490966797
0.3647059202194214 0.15294116735458374 0.1507411003112793
0.3803921937942505 0.15294116735458374 0.16153383255004883
0.6941176652908325 0.15294116735458374 0.48450183868408203
0.7254902124404907 0.15294116735458374 0.3320960998535156
-0.529411792755127 0.13725489377975464 0.17114019393920898
-0.5137255191802979 0.13725489377975464 0.1657123565673828
-0.45098036527633667 0.13725489377975464 0.04422473907470703
-0.41960781812667847 0.13725489377975464 -0.0880589485168457
-0.40392154455184937 0.13725489377975464 -0.09776163101196289
-0.30980390310287476 0.13725489377975464 0.44048643112182617
-0.29411762952804565 0.13725489377975464 0.4471464157104492
-0.27843135595321655 0.13725489377975464 0.4496607780456543
-0.16862744092941284 0.13725489377975464 -0.031328678131103516
0.050980448722839355 0.13725489377975464 -0.057691097259521484
0.06666672229766846 0.13725489377975464 -0.06263160705566406
0.23921573162078857 0.13725489377975464 0.2347245216369629
0.2549020051956177 0.13725489377975464 0.22716426849365234
0.2862745523452759 0.13725489377975464 -0.07352924346923828
0.301960825920105 0.13725489377975464 -0.04632091522216797
0.3176470994949341 0.13725489377975464 -0.14623165130615234
0.3803921937942505 0.13725489377975464 0.15320634841918945
0.6941176652908325 0.13725489377975464 0.47527122497558594
0.7098039388656616 0.13725489377975464 0.4681854248046875
0.7254902124404907 0.13725489377975464 0.3182244300842285
0.7411764860153198 0.13725489377975464 0.3213038444519043
-0.545098066329956 0.12156862020492554 0.18268871307373047
-0.529411792755127 0.12156862020492554 0.17803192138671875
-0.45098036527633667 0.12156862020492554 0.026033401489257812
-0.43529409170150757 0.12156862020492554 0.01642608642578125
-0.40392154455184937 0.12156862020492554 -0.10428094863891602
-0.34117645025253296 0.12156862020492554 0.43563270568847656
-0.32549017667770386 0.12156862020492554 0.43857240676879883
-0.30980390310287476 0.12156862020492554 0.43923139572143555
-0.16862744092941284 0.12156862020492554 -0.04389047622680664
-0.15294116735458374 0.12156862020492554 -0.04571533203125
0.06666672229766846 0.12156862020492554 -0.06598281860351562
0.2549020051956177 0.12156862020492554 0.22490549087524414
0.2705882787704468 0.12156862020492554 -0.039453983306884766
0.301960825920105 0.12156862020492554 -0.05331707000732422
0.3176470994949341 0.12156862020492554 -0.0671849250793457
0.3960784673690796 0.12156862020492554 0.1458573341369629
0.7098039388656616 0.12156862020492554 0.4659271240234375
0.7411764860153198 0.12156862020492554 0.31699132919311523
-0.5607843399047852 0.10588234663009644 0.1894993782043457
-0.545098066329956 0.10588234663009644 0.18617010116577148
-0.43529409170150757 0.10588234663009644 0.0064220428466796875
-0.38823527097702026 0.10588234663009644 0.4148273468017578
-0.37254899740219116 0.10588234663009644 0.4233260154724121
-0.35686272382736206 0.10588234663009644 0.4291238784790039
-0.15294116735458374 0.10588234663009644 -0.05216360092163086
0.06666672229766846 0.10588234663009644 -0.07730960845947266
0.08235299587249756 0.10588234663009644 -0.07799005508422852
0.2549020051956177 0.10588234663009644 0.2128286361694336
0.2705882787704468 0.10588234663009644 0.2103114128112793
0.3176470994949341 0.10588234663009644 -0.06546831130981445
0.3333333730697632 0.10588234663009644 -0.16937541961669922
0.3960784673690796 0.10588234663009644 0.1344289779663086
0.4117647409439087 0.10588234663009644 0.13190174102783203
0.7098039388656616 0.10588234663009644 0.45380115509033203
0.7254902124404907 0.10588234663009644 0.4501476287841797
0.7568627595901489 0.10588234663009644 0.30448389053344727
-0.5921568870544434 0.09019607305526733 0.18677520751953125
-0.5764706134796143 0.09019607305526733 0.1925334930419922
-0.5607843399047852 0.09019607305526733 0.18704700469970703
-0.43529409170150757 0.09019607305526733 -0.02062225341796875
-0.41960781812667847 0.09019607305526733 0.40301084518432617
-0.40392154455184937 0.09019607305526733 0.41242027282714844
-0.38823527097702026 0.09019607305526733 0.41881513595581055
-0.37254899740219116 0.09019607305526733 -0.13914012908935547
-0.15294116735458374 0.09019607305526733 -0.06671142578125
-0.13725489377975464 0.09019607305526733 -0.06614828109741211
0.08235299587249756 0.09019607305526733 -0.08307456970214844
0.2705882787704468 0.09019607305526733 0.20550775527954102
0.2862745523452759 0.09019607305526733 -0.014906883239746094
0.3176470994949341 0.09019607305526733 -0.07829999923706055
0.3333333730697632 0.09019607305526733 -0.08693456649780273
0.4117647409439087 0.09019607305526733 0.1285858154296875
0.7254902124404907 0.09019607305526733 0.44638633728027344
0.7568627595901489 0.09019607305526733 0.29587602615356445
0.772549033164978 0.09019607305526733 0.2880287170410156
-0.6235294342041016 0.07450979948043823 0.18355321884155273
-0.6078431606292725 0.07450979948043823 0.19159889221191406
-0.5921568870544434 0.07450979948043823 0.19296026229858398
-0.46666663885116577 0.07450979948043823 0.3754596710205078
-0.45098036527633667 0.07450979948043823 0.38731813430786133
-0.43529409170150757 0.07450979948043823 0.39435243606567383
-0.41960781812667847 0.07450979948043823 0.4100379943847656
-0.37254899740219116 0.07450979948043823 -0.15042972564697266
-0.13725489377975464 0.07450979948043823 -0.07270574569702148
0.08235299587249756 0.07450979948043823 -0.09745073318481445
0.09803926944732666 0.07450979948043823 -0.09360313415527344
0.2705882787704468 0.07450979948043823 0.1904458999633789
0.2862745523452759 0.07450979948043823 0.19214200973510742
0.3333333730697632 0.07450979948043823 -0.09659242630004883
0.3490196466445923 0.07450979948043823 -0.19615554809570312
0.4117647409439087 0.07450979948043823 0.11687612533569336
0.4274510145187378 0.07450979948043823 0.11821794509887695
0.7254902124404907 0.07450979948043823 0.4324517250061035
0.7411764860153198 0.07450979948043823 0.4332127571105957
0.772549033164978 0.07450979948043823 0.2860708236694336
-0.6549019813537598 0.05882352590560913 0.1771550178527832
-0.6392157077789307 0.05882352590560913 0.18431377410888672
-0.6235294342041016 0.05882352590560913 0.18935871124267578
-0.498039186000824 0.05882352590560913 0.3667106628417969
-0.4823529124259949 0.05882352590560913 0.3739008903503418
-0.46666663885116577 0.05882352590560913 0.3781557083129883
-0.41960781812667847 0.05882352590560913 0.0018181800842285156
-0.40392154455184937 0.05882352590560913 0.041205406188964844
-0.37254899740219116 0.05882352590560913 -0.14891529083251953
-0.35686272382736206 0.05882352590560913 -0.15783357620239258
-0.13725489377975464 0.05882352590560913 -0.0915522575378418
-0.12156862020492554 0.05882352590560913 -0.08697795867919922
0.09803926944732666 0.05882352590560913 -0.09972000122070312
0.2862745523452759 0.05882352590560913 0.18643808364868164
0.301960825920105 0.05882352590560913 0.15765810012817383
0.3333333730697632 0.05882352590560913 -0.1441020965576172
0.3490196466445923 0.05882352590560913 -0.11451196670532227
0.4274510145187378 0.05882352590560913 0.11457252502441406
0.7411764860153198 0.05882352590560913 0.42803478240966797
0.772549033164978 0.05882352590560913 0.2746124267578125
0.7882353067398071 0.05882352590560913 0.27033424377441406
-0.686274528503418 0.04313725233078003 0.1681060791015625
-0.6705882549285889 0.04313725233078003 0.17229843139648438
-0.6549019813537598 0.04313725233078003 0.1719670295715332
-0.6235294342041016 0.04313725233078003 0.17138433456420898
-0.529411792755127 0.04313725233078003 0.35629796981811523
-0.5137255191802979 0.04313725233078003 0.36257266998291016
-0.498039186000824 0.04313725233078003 0.3632211685180664
-0.40392154455184937 0.04313725233078003 0.039250850677490234
-0.35686272382736206 0.04313725233078003 -0.16096735000610352
-0.12156862020492554 0.04313725233078003 -0.09523153305053711
0.09803926944732666 0.04313725233078003 -0.11889457702636719
0.11372554302215576 0.04313725233078003 -0.10953235626220703
0.301960825920105 0.04313725233078003 0.17560100555419922
0.3490196466445923 0.04313725233078003 -0.12263965606689453
0.3647059202194214 0.04313725233078003 -0.13760995864868164
0.4274510145187378 0.04313725233078003 0.10183095932006836
0.4431372880935669 0.04313725233078003 0.10705041885375977
0.7568627595901489 0.04313725233078003 0.4154486656188965
0.7882353067398071 0.04313725233078003 0.26520347595214844
-0.7333333492279053 0.027450978755950928 0.14849090576171875
-0.7176470756530762 0.027450978755950928 0.15737581253051758
-0.7019608020782471 0.027450978755950928 0.16153717041015625
-0.6235294342041016 0.027450978755950928 0.16595029830932617
-0.6078431606292725 0.027450978755950928 0.18921661376953125
-0.5764706134796143 0.027450978755950928 0.33457040786743164
-0.5607843399047852 0.027450978755950928 0.342343807220459
-0.545098066329956 0.027450978755950928 0.3470320701599121
-0.38823527097702026 0.027450978755950928 0.03152036666870117
-0.35686272382736206 0.027450978755950928 -0.16890907287597656
-0.34117645025253296 0.027450978755950928 -0.17502260208129883
-0.10588234663009644 0.027450978755950928 -0.10697746276855469
0.11372554302215576 0.027450978755950928 -0.11824560165405273
0.301960825920105 0.027450978755950928 0.16624212265014648
0.3176470994949341 0.027450978755950928 0.1551980972290039
0.3490196466445923 0.027450978755950928 -0.19465255737304688
0.3647059202194214 0.027450978755950928 -0.13529634475708008
0.4431372880935669 0.027450978755950928 0.10341882705688477
0.7568627595901489 0.027450978755950928 0.40739917755126953
0.772549033164978 0.027450978755950928 0.39221715927124023
0.7882353067398071 0.027450978755950928 0.2536344528198242
0.8039215803146362 0.027450978755950928 0.25249290466308594
-0.7647058963775635 0.011764705181121826 0.13717412948608398
-0.7490196228027344 0.011764705181121826 0.14342546463012695
-0.7333333492279053 0.011764705181121826 0.14589357376098633
-0.6078431606292725 0.011764705181121826 0.32198333740234375
-0.5921568870544434 0.011764705181121826 0.32801103591918945
-0.5764706134796143 0.011764705181121826 0.32976770401000977
-0.38823527097702026 0.011764705181121826 0.02057647705078125
-0.34117645025253296 0.011764705181121826 -0.17885303497314453
-0.10588234663009644 0.011764705181121826 -0.11583423614501953
-0.09019607305526733 0.011764705181121826 -0.12380027770996094
0.12941181659698486 0.011764705181121826 -0.12672042846679688
0.3176470994949341 0.011764705181121826 0.15687084197998047
0.3647059202194214 0.011764705181121826 -0.1446380615234375
0.3803921937942505 0.011764705181121826 -0.15520524978637695
0.4431372880935669 0.011764705181121826 0.08738994598388672
0.458823561668396 0.011764705181121826 0.09555244445800781
0.772549033164978 0.011764705181121826 0.39604902267456055
0.8039215803146362 0.011764705181121826 0.24683332443237305
-0.8117647171020508 -0.003921627998352051 0.1158757209777832
-0.7960784435272217 -0.003921627998352051 0.12457609176635742
-0.7803921699523926 -0.003921627998352051 0.1276707649230957
-0.6549019813537598 -0.003921627998352051 0.3038311004638672
-0.6392157077789307 -0.003921627998352051 0.3123292922973633
-0.6235294342041016 -0.003921627998352051 0.31692075729370117
-0.5921568870544434 -0.003921627998352051 0.1699676513671875
-0.37254899740219116 -0.003921627998352051 0.008675575256347656
-0.34117645025253296 -0.003921627998352051 -0.1892681121826172
-0.32549017667770386 -0.003921627998352051 -0.19353628158569336
-0.09019607305526733 -0.003921627998352051 -0.12468671798706055
0.12941181659698486 -0.003921627998352051 -0.13653326034545898
0.14509809017181396 -0.003921627998352051 -0.14137744903564453
0.3176470994949341 -0.003921627998352051 0.14529085159301758
0.3333333730697632 -0.003921627998352051 0.13834857940673828
0.3647059202194214 -0.003921627998352051 -0.18185997009277344
0.3803921937942505 -0.003921627998352051 -0.15995073318481445
0.3960784673690796 -0.003921627998352051 -0.23218345642089844
0.458823561668396 -0.003921627998352051 0.08868551254272461
0.772549033164978 -0.003921627998352051 0.3874955177307129
0.7882353067398071 -0.003921627998352051 0.3760242462158203
0.8039215803146362 -0.003921627998352051 0.23335742950439453
0.8196078538894653 -0.003921627998352051 0.2348804473876953
-0.843137264251709 -0.019607901573181152 0.10565376281738281
-0.8274509906768799 -0.019607901573181152 0.11121702194213867
-0.8117647171020508 -0.019607901573181152 0.11245298385620117
-0.686274528503418 -0.019607901573181152 0.29488420486450195
-0.6705882549285889 -0.019607901573181152 0.3018989562988281
-0.6549019813537598 -0.019607901573181152 0.3048076629638672
-0.5921568870544434 -0.019607901573181152 0.1612834930419922
-0.37254899740219116 -0.019607901573181152 -0.003077983856201172
-0.35686272382736206 -0.019607901573181152 -0.008745670318603516
-0.32549017667770386 -0.019607901573181152 -0.19759893417358398
-0.09019607305526733 -0.019607901573181152 -0.13617897033691406
-0.07450979948043823 -0.019607901573181152 -0.13846349716186523
0.14509809017181396 -0.019607901573181152 -0.1433849334716797
0.3333333730697632 -0.019607901573181152 0.13628816604614258
0.3490196466445923 -0.019607901573181152 -0.1392064094543457
0.3803921937942505 -0.019607901573181152 -0.1734485626220703
0.3960784673690796 -0.019607901573181152 -0.18155288696289062
0.458823561668396 -0.019607901573181152 0.06640481948852539
0.4745098352432251 -0.019607901573181152 0.08189201354980469
0.7882353067398071 -0.019607901573181152 0.37680816650390625
0.8196078538894653 -0.019607901573181152 0.22682857513427734
-0.8901960849761963 -0.035294175148010254 0.08727121353149414
-0.8745098114013672 -0.035294175148010254 0.09860086441040039
-0.8588235378265381 -0.035294175148010254 0.10188484191894531
-0.7333333492279053 -0.035294175148010254 0.26994848251342773
-0.7176470756530762 -0.035294175148010254 0.2810392379760742
-0.7019608020782471 -0.035294175148010254 0.28716325759887695
-0.5764706134796143 -0.035294175148010254 0.15412473678588867
-0.35686272382736206 -0.035294175148010254 -0.014491081237792969
-0.30980390310287476 -0.035294175148010254 -0.20895624160766602
-0.07450979948043823 -0.035294175148010254 -0.14336252212524414
0.14509809017181396 -0.035294175148010254 -0.1542191505432129
0.16078436374664307 -0.035294175148010254 -0.15696334838867188
0.3333333730697632 -0.035294175148010254 0.12215042114257812
0.3490196466445923 -0.035294175148010254 0.11807489395141602
0.3960784673690796 -0.035294175148010254 -0.18833065032958984
0.4117647409439087 -0.035294175148010254 -0.25444459915161133
0.4745098352432251 -0.035294175148010254 0.07361602783203125
0.7882353067398071 -0.035294175148010254 0.3667454719543457
0.8039215803146362 -0.035294175148010254 0.36038970947265625
0.8352941274642944 -0.035294175148010254 0.21571683883666992
-0.9215686321258545 -0.050980448722839355 0.06908082962036133
-0.9058823585510254 -0.050980448722839355 0.08675765991210938
-0.8901960849761963 -0.050980448722839355 0.09265613555908203
-0.7647058963775635 -0.050980448722839355 0.25603342056274414
-0.7490196228027344 -0.050980448722839355 0.2650151252746582
-0.7333333492279053 -0.050980448722839355 0.2692279815673828
-0.5764706134796143 -0.050980448722839355 0.14622879028320312
-0.5607843399047852 -0.050980448722839355 0.13775205612182617
-0.35686272382736206 -0.050980448722839355 -0.02800130844116211
-0.34117645025253296 -0.050980448722839355 -0.028738021850585938
-0.30980390310287476 -0.050980448722839355 -0.2151637077331543
-0.29411762952804565 -0.050980448722839355 -0.23044252395629883
-0.07450979948043823 -0.050980448722839355 -0.1578836441040039
-0.05882352590560913 -0.050980448722839355 -0.15531015396118164
0.16078436374664307 -0.050980448722839355 -0.16000032424926758
0.3490196466445923 -0.050980448722839355 0.1143641471862793
0.3647059202194214 -0.050980448722839355 -0.10380077362060547
0.3960784673690796 -0.050980448722839355 -0.1994185447692871
0.4117647409439087 -0.050980448722839355 -0.2056722640991211
0.4901961088180542 -0.050980448722839355 0.06847572326660156
0.8039215803146362 -0.050980448722839355 0.35791730880737305
0.8352941274642944 -0.050980448722839355 0.20504379272460938
0.8509804010391235 -0.050980448722839355 0.20028018951416016
-0.9215686321258545 -0.06666672229766846 0.09139442443847656
-0.9058823585510254 -0.06666672229766846 0.07493400573730469
-0.8117647171020508 -0.06666672229766846 0.22898578643798828
-0.7960784435272217 -0.06666672229766846 0.2419137954711914
-0.7803921699523926 -0.06666672229766846 0.24854707717895508
-0.7647058963775635 -0.06666672229766846 0.24913787841796875
-0.5607843399047852 -0.06666672229766846 0.1378321647644043
-0.34117645025253296 -0.06666672229766846 -0.03423452377319336
-0.29411762952804565 -0.06666672229766846 -0.22792387008666992
-0.05882352590560913 -0.06666672229766846 -0.162200927734375
0.16078436374664307 -0.06666672229766846 -0.1749553680419922
0.17647063732147217 -0.06666672229766846 -0.17392730712890625
0.3490196466445923 -0.06666672229766846 0.09621524810791016
0.3647059202194214 -0.06666672229766846 0.09690332412719727
0.4117647409439087 -0.06666672229766846 -0.21253585815429688
0.4274510145187378 -0.06666672229766846 -0.2827796936035156
0.4901961088180542 -0.06666672229766846 0.05559206008911133
0.5058823823928833 -0.06666672229766846 0.05719470977783203
0.8039215803146362 -0.06666672229766846 0.34623003005981445
0.8196078538894653 -0.06666672229766846 0.3425912857055664
0.8509804010391235 -0.06666672229766846 0.1958756446838379
-0.9215686321258545 -0.08235299587249756 0.1157388687133789
-0.9058823585510254 -0.08235299587249756 0.06500482559204102
-0.843137264251709 -0.08235299587249756 0.22179555892944336
-0.8274509906768799 -0.08235299587249756 0.22981643676757812
-0.8117647171020508 -0.08235299587249756 0.23424720764160156
-0.5607843399047852 -0.08235299587249756 0.12845706939697266
-0.545098066329956 -0.08235299587249756 0.12590360641479492
-0.34117645025253296 -0.08235299587249756 -0.05212259292602539
-0.32549017667770386 -0.08235299587249756 -0.046918392181396484
-0.29411762952804565 -0.08235299587249756 -0.2336101531982422
-0.27843135595321655 -0.08235299587249756 -0.24605035781860352
-0.05882352590560913 -0.08235299587249756 -0.17881202697753906
-0.04313725233078003 -0.08235299587249756 -0.17238903045654297
0.17647063732147217 -0.08235299587249756 -0.18060302734375
0.3647059202194214 -0.08235299587249756 0.08940601348876953
0.3803921937942505 -0.08235299587249756 0.04319572448730469
0.4117647409439087 -0.08235299587249756 -0.2251901626586914
0.4274510145187378 -0.08235299587249756 -0.23074674606323242
0.5058823823928833 -0.08235299587249756 0.05608224868774414
0.8196078538894653 -0.08235299587249756 0.33861398696899414
0.8509804010391235 -0.08235299587249756 0.1857295036315918
0.8666666746139526 -0.08235299587249756 0.18168401718139648
-0.9215686321258545 -0.09803926944732666 0.14581584930419922
-0.9058823585510254 -0.09803926944732666 0.06181049346923828
-0.8901960849761963 -0.09803926944732666 0.04455852508544922
-0.8745098114013672 -0.09803926944732666 0.20940637588500977
-0.8588235378265381 -0.09803926944732666 0.21750593185424805
-0.843137264251709 -0.09803926944732666 0.22012853622436523
-0.545098066329956 -0.09803926944732666 0.122589111328125
-0.32549017667770386 -0.09803926944732666 -0.054569244384765625
-0.27843135595321655 -0.09803926944732666 -0.2443394660949707
-0.04313725233078003 -0.09803926944732666 -0.17865228652954102
0.17647063732147217 -0.09803926944732666 -0.19930171966552734
0.19215691089630127 -0.09803926944732666 -0.19295072555541992
0.3803921937942505 -0.09803926944732666 0.07520627975463867
0.4274510145187378 -0.09803926944732666 -0.24056386947631836
0.4431372880935669 -0.09803926944732666 -0.28789663314819336
0.5058823823928833 -0.09803926944732666 0.04811859130859375
0.5215686559677124 -0.09803926944732666 0.049962520599365234
0.8196078538894653 -0.09803926944732666 0.3235969543457031
0.8352941274642944 -0.09803926944732666 0.3244624137878418
0.8666666746139526 -0.09803926944732666 0.1782236099243164
-0.9215686321258545 -0.11372554302215576 0.1832447052001953
-0.9058823585510254 -0.11372554302215576 0.19572067260742188
-0.8901960849761963 -0.11372554302215576 0.2019200325012207
-0.545098066329956 -0.11372554302215576 0.11179542541503906
-0.529411792755127 -0.11372554302215576 0.11289024353027344
-0.32549017667770386 -0.11372554302215576 -0.10199403762817383
-0.30980390310287476 -0.11372554302215576 -0.06514501571655273
-0.27843135595321655 -0.11372554302215576 -0.24944591522216797
-0.26274508237838745 -0.11372554302215576 -0.2601046562194824
-0.027450978755950928 -0.11372554302215576 -0.18769454956054688
0.19215691089630127 -0.11372554302215576 -0.2014164924621582
0.3803921937942505 -0.11372554302215576 0.06740283966064453
0.3960784673690796 -0.11372554302215576 0.05226564407348633
0.4274510145187378 -0.11372554302215576 -0.2588486671447754
0.4431372880935669 -0.11372554302215576 -0.2628965377807617
0.5215686559677124 -0.11372554302215576 0.046871185302734375
0.8352941274642944 -0.11372554302215576 0.3184537887573242
0.8666666746139526 -0.11372554302215576 0.16718816757202148
0.8823529481887817 -0.11372554302215576 0.16675090789794922
-0.9215686321258545 -0.12941181659698486 0.18256521224975586
-0.9058823585510254 -0.12941181659698486 0.17855167388916016
-0.8901960849761963 -0.12941181659698486 0.056113243103027344
-0.8745098114013672 -0.12941181659698486 0.04559326171875
-0.529411792755127 -0.12941181659698486 0.1070261001586914
-0.30980390310287476 -0.12941181659698486 -0.07436656951904297
-0.26274508237838745 -0.12941181659698486 -0.25965404510498047
-0.027450978755950928 -0.12941181659698486 -0.19643115997314453
-0.011764705181121826 -0.12941181659698486 -0.20435857772827148
0.20784318447113037 -0.12941181659698486 -0.21311712265014648
0.3960784673690796 -0.12941181659698486 0.05548810958862305
0.4431372880935669 -0.12941181659698486 -0.2788224220275879
0.458823561668396 -0.12941181659698486 -0.286653995513916
0.5215686559677124 -0.12941181659698486 0.0304107666015625
0.5372549295425415 -0.12941181659698486 0.03796529769897461
0.8509804010391235 -0.12941181659698486 0.30606889724731445
0.8823529481887817 -0.12941181659698486 0.16112089157104492
-0.9058823585510254 -0.14509809017181396 0.17078256607055664
-0.8745098114013672 -0.14509809017181396 0.04271984100341797
-0.529411792755127 -0.14509809017181396 0.09046268463134766
-0.5137255191802979 -0.14509809017181396 0.09542131423950195
-0.29411762952804565 -0.14509809017181396 -0.08362722396850586
-0.26274508237838745 -0.14509809017181396 -0.2669806480407715
-0.24705880880355835 -0.14509809017181396 -0.2732076644897461
-0.011764705181121826 -0.14509809017181396 -0.2044367790222168
0.20784318447113037 -0.14509809017181396 -0.2228240966796875
0.22352945804595947 -0.14509809017181396 -0.23331737518310547
