ply
format ascii 1.0
element vertex 796
property float x
property float y
property float z
end_header
0.3803921937942505 0.686274528503418 0.36745452880859375
0.3960784673690796 0.686274528503418 0.3688826560974121
0.11372554302215576 0.6705882549285889 0.33751916885375977
0.12941181659698486 0.6705882549285889 0.34447431564331055
0.14509809017181396 0.6705882549285889 0.34814453125
0.16078436374664307 0.6705882549285889 0.35097408294677734
0.17647063732147217 0.6705882549285889 0.35272741317749023
0.3647059202194214 0.6705882549285889 0.46552276611328125
0.3960784673690796 0.6705882549285889 0.3629426956176758
0.050980448722839355 0.6549019813537598 0.32402610778808594
0.06666672229766846 0.6549019813537598 0.3318014144897461
0.08235299587249756 0.6549019813537598 0.335845947265625
0.09803926944732666 0.6549019813537598 0.33841371536254883
0.11372554302215576 0.6549019813537598 0.3400444984436035
0.3647059202194214 0.6549019813537598 0.4804549217224121
0.3960784673690796 0.6549019813537598 0.3457159996032715
0.4117647409439087 0.6549019813537598 0.3427276611328125
-0.011764705181121826 0.6392157077789307 0.3105430603027344
0.003921627998352051 0.6392157077789307 0.31764793395996094
0.019607901573181152 0.6392157077789307 0.3210930824279785
0.035294175148010254 0.6392157077789307 0.3238201141357422
0.050980448722839355 0.6392157077789307 0.32634830474853516
0.3647059202194214 0.6392157077789307 0.4950733184814453
0.4117647409439087 0.6392157077789307 0.3316826820373535
-0.07450979948043823 0.6235294342041016 0.29828548431396484
-0.05882352590560913 0.6235294342041016 0.3061866760253906
-0.04313725233078003 0.6235294342041016 0.31045007705688477
-0.027450978755950928 0.6235294342041016 0.3125729560852051
-0.011764705181121826 0.6235294342041016 0.3143157958984375
0.3647059202194214 0.6235294342041016 0.5071406364440918
0.4117647409439087 0.6235294342041016 0.3149752616882324
0.4274510145187378 0.6235294342041016 0.3127326965332031
-0.13725489377975464 0.6078431606292725 0.28607654571533203
-0.12156862020492554 0.6078431606292725 0.2934608459472656
-0.10588234663009644 0.6078431606292725 0.29684925079345703
-0.09019607305526733 0.6078431606292725 0.2994656562805176
-0.07450979948043823 0.6078431606292725 0.3017921447753906
0.3176470994949341 0.6078431606292725 0.4851861000061035
0.3333333730697632 0.6078431606292725 0.4934840202331543
0.3490196466445923 0.6078431606292725 0.4994344711303711
0.3647059202194214 0.6078431606292725 0.5097465515136719
0.3803921937942505 0.6078431606292725 0.5076570510864258
0.4274510145187378 0.6078431606292725 0.3047966957092285
-0.19999998807907104 0.5921568870544434 0.27182435989379883
-0.18431371450424194 0.5921568870544434 0.28043317794799805
-0.16862744092941284 0.5921568870544434 0.28472423553466797
-0.15294116735458374 0.5921568870544434 0.28749752044677734
-0.13725489377975464 0.5921568870544434 0.2896847724914551
0.2549020051956177 0.5921568870544434 0.4722151756286621
0.2705882787704468 0.5921568870544434 0.4791388511657715
0.2862745523452759 0.5921568870544434 0.48280811309814453
0.301960825920105 0.5921568870544434 0.4851851463317871
0.3176470994949341 0.5921568870544434 0.48635005950927734
0.3803921937942505 0.5921568870544434 0.5081772804260254
0.4274510145187378 0.5921568870544434 0.29145145416259766
0.4431372880935669 0.5921568870544434 0.2883291244506836
-0.26274508237838745 0.5764706134796143 0.25699806213378906
-0.24705880880355835 0.5764706134796143 0.2653474807739258
-0.23137253522872925 0.5764706134796143 0.2695431709289551
-0.21568626165390015 0.5764706134796143 0.2727212905883789
-0.19999998807907104 0.5764706134796143 0.27572059631347656
0.19215691089630127 0.5764706134796143 0.4574007987976074
0.20784318447113037 0.5764706134796143 0.46501684188842773
0.22352945804595947 0.5764706134796143 0.46869373321533203
0.23921573162078857 0.5764706134796143 0.47153186798095703
0.2549020051956177 0.5764706134796143 0.4728574752807617
0.3803921937942505 0.5764706134796143 0.49702930450439453
0.3960784673690796 0.5764706134796143 0.49039459228515625
0.4431372880935669 0.5764706134796143 0.2810044288635254
-0.32549017667770386 0.5607843399047852 0.24286174774169922
-0.30980390310287476 0.5607843399047852 0.25061988830566406
-0.29411762952804565 0.5607843399047852 0.2549262046813965
-0.27843135595321655 0.5607843399047852 0.2576284408569336
-0.26274508237838745 0.5607843399047852 0.2605295181274414
0.12941181659698486 0.5607843399047852 0.4444608688354492
0.14509809017181396 0.5607843399047852 0.4520406723022461
0.16078436374664307 0.5607843399047852 0.45588111877441406
0.17647063732147217 0.5607843399047852 0.4586195945739746
0.19215691089630127 0.5607843399047852 0.4600663185119629
0.3960784673690796 0.5607843399047852 0.4867367744445801
0.4431372880935669 0.5607843399047852 0.26851940155029297
0.458823561668396 0.5607843399047852 0.26279115676879883
-0.38823527097702026 0.545098066329956 0.22975540161132812
-0.37254899740219116 0.545098066329956 0.23712444305419922
-0.35686272382736206 0.545098066329956 0.24101686477661133
-0.34117645025253296 0.545098066329956 0.24393320083618164
-0.32549017667770386 0.545098066329956 0.24625539779663086
0.06666672229766846 0.545098066329956 0.43403005599975586
0.08235299587249756 0.545098066329956 0.44031667709350586
0.09803926944732666 0.545098066329956 0.44387340545654297
0.11372554302215576 0.545098066329956 0.44626331329345703
0.12941181659698486 0.545098066329956 0.44744873046875
0.3960784673690796 0.545098066329956 0.4744715690612793
0.4117647409439087 0.545098066329956 0.46535444259643555
0.458823561668396 0.545098066329956 0.2571725845336914
-0.45098036527633667 0.529411792755127 0.2164168357849121
-0.43529409170150757 0.529411792755127 0.22488737106323242
-0.41960781812667847 0.529411792755127 0.22923564910888672
-0.40392154455184937 0.529411792755127 0.23172473907470703
-0.38823527097702026 0.529411792755127 0.23351240158081055
0.003921627998352051 0.529411792755127 0.4268484115600586
0.019607901573181152 0.529411792755127 0.43315649032592773
0.035294175148010254 0.529411792755127 0.4357638359069824
0.050980448722839355 0.529411792755127 0.4372987747192383
0.06666672229766846 0.529411792755127 0.4376206398010254
0.4117647409439087 0.529411792755127 0.4621124267578125
0.458823561668396 0.529411792755127 0.24590826034545898
0.4745098352432251 0.529411792755127 0.23930931091308594
-0.5137255191802979 0.5137255191802979 0.20087862014770508
-0.498039186000824 0.5137255191802979 0.20811986923217773
-0.4823529124259949 0.5137255191802979 0.21243667602539062
-0.46666663885116577 0.5137255191802979 0.21576166152954102
-0.45098036527633667 0.5137255191802979 0.2191023826599121
-0.05882352590560913 0.5137255191802979 0.41155147552490234
-0.04313725233078003 0.5137255191802979 0.41891956329345703
-0.027450978755950928 0.5137255191802979 0.42336320877075195
-0.011764705181121826 0.5137255191802979 0.4267573356628418
0.003921627998352051 0.5137255191802979 0.42793750762939453
0.4117647409439087 0.5137255191802979 0.45002174377441406
0.4274510145187378 0.5137255191802979 0.4367218017578125
0.4745098352432251 0.5137255191802979 0.23316574096679688
-0.5764706134796143 0.498039186000824 0.18561363220214844
-0.5607843399047852 0.498039186000824 0.19381952285766602
-0.545098066329956 0.498039186000824 0.1984577178955078
-0.529411792755127 0.498039186000824 0.20108461380004883
-0.5137255191802979 0.498039186000824 0.20326948165893555
-0.12156862020492554 0.498039186000824 0.39455604553222656
-0.10588234663009644 0.498039186000824 0.4035491943359375
-0.09019607305526733 0.498039186000824 0.40781450271606445
-0.07450979948043823 0.498039186000824 0.4109363555908203
-0.05882352590560913 0.498039186000824 0.4130215644836426
0.4274510145187378 0.498039186000824 0.4348869323730469
0.4745098352432251 0.498039186000824 0.2190394401550293
0.4901961088180542 0.498039186000824 0.2100362777709961
-0.6392157077789307 0.4823529124259949 0.16924142837524414
-0.6235294342041016 0.4823529124259949 0.17766618728637695
-0.6078431606292725 0.4823529124259949 0.1823716163635254
-0.5921568870544434 0.4823529124259949 0.18578386306762695
-0.5764706134796143 0.4823529124259949 0.1887369155883789
-0.18431371450424194 0.4823529124259949 0.3802981376647949
-0.16862744092941284 0.4823529124259949 0.38864994049072266
-0.15294116735458374 0.4823529124259949 0.3928093910217285
-0.13725489377975464 0.4823529124259949 0.39562082290649414
-0.12156862020492554 0.4823529124259949 0.3975944519042969
0.4274510145187378 0.4823529124259949 0.4225039482116699
0.4431372880935669 0.4823529124259949 0.40769243240356445
0.4901961088180542 0.4823529124259949 0.2037510871887207
-0.7019608020782471 0.46666663885116577 0.15612506866455078
-0.686274528503418 0.46666663885116577 0.16324329376220703
-0.6705882549285889 0.46666663885116577 0.16689109802246094
-0.6549019813537598 0.46666663885116577 0.16939496994018555
-0.6392157077789307 0.46666663885116577 0.1718297004699707
-0.24705880880355835 0.46666663885116577 0.3686099052429199
-0.23137253522872925 0.46666663885116577 0.3765983581542969
-0.21568626165390015 0.46666663885116577 0.3803129196166992
-0.19999998807907104 0.46666663885116577 0.38280344009399414
-0.18431371450424194 0.46666663885116577 0.38477659225463867
0.4431372880935669 0.46666663885116577 0.4082479476928711
0.4901961088180542 0.46666663885116577 0.19138240814208984
0.5058823823928833 0.46666663885116577 0.1816420555114746
-0.7647058963775635 0.45098036527633667 0.1399083137512207
-0.7490196228027344 0.45098036527633667 0.14742517471313477
-0.7333333492279053 0.45098036527633667 0.15207719802856445
-0.7176470756530762 0.45098036527633667 0.15594196319580078
-0.7019608020782471 0.45098036527633667 0.1587977409362793
-0.30980390310287476 0.45098036527633667 0.3514423370361328
-0.29411762952804565 0.45098036527633667 0.3601226806640625
-0.27843135595321655 0.45098036527633667 0.3647451400756836
-0.26274508237838745 0.45098036527633667 0.3683443069458008
-0.24705880880355835 0.45098036527633667 0.37082481384277344
0.4431372880935669 0.45098036527633667 0.3971214294433594
0.458823561668396 0.45098036527633667 0.3810276985168457
0.5058823823928833 0.45098036527633667 0.1764974594116211
-0.8274509906768799 0.43529409170150757 0.11900663375854492
-0.8117647171020508 0.43529409170150757 0.12801122665405273
-0.7960784435272217 0.43529409170150757 0.1343221664428711
-0.7803921699523926 0.43529409170150757 0.13860702514648438
-0.7647058963775635 0.43529409170150757 0.14142274856567383
-0.37254899740219116 0.43529409170150757 0.33444786071777344
-0.35686272382736206 0.43529409170150757 0.34284114837646484
-0.34117645025253296 0.43529409170150757 0.34709978103637695
-0.32549017667770386 0.43529409170150757 0.3505268096923828
-0.30980390310287476 0.43529409170150757 0.3532710075378418
0.09803926944732666 0.43529409170150757 0.09494447708129883
0.11372554302215576 0.43529409170150757 0.10447978973388672
0.12941181659698486 0.43529409170150757 0.11002588272094727
0.14509809017181396 0.43529409170150757 0.1131296157836914
0.16078436374664307 0.43529409170150757 0.1148223876953125
0.17647063732147217 0.43529409170150757 0.11493492126464844
0.19215691089630127 0.43529409170150757 0.11328458786010742
0.20784318447113037 0.43529409170150757 0.10935306549072266
0.22352945804595947 0.43529409170150757 0.10050773620605469
0.458823561668396 0.43529409170150757 0.3812999725341797
0.5058823823928833 0.43529409170150757 0.16420555114746094
-0.8588235378265381 0.41960781812667847 0.1222224235534668
-0.843137264251709 0.41960781812667847 0.11864233016967773
-0.8274509906768799 0.41960781812667847 0.12006807327270508
-0.43529409170150757 0.41960781812667847 0.3217301368713379
-0.41960781812667847 0.41960781812667847 0.32950305938720703
-0.40392154455184937 0.41960781812667847 0.3335132598876953
-0.38823527097702026 0.41960781812667847 0.3360018730163574
-0.37254899740219116 0.41960781812667847 0.33791160583496094
0.08235299587249756 0.41960781812667847 0.08920526504516602
0.09803926944732666 0.41960781812667847 0.09507942199707031
0.22352945804595947 0.41960781812667847 0.09896373748779297
0.23921573162078857 0.41960781812667847 0.0935664176940918
0.458823561668396 0.41960781812667847 0.370546817779541
0.5215686559677124 0.41960781812667847 0.14819765090942383
-0.8588235378265381 0.40392154455184937 0.13721418380737305
-0.843137264251709 0.40392154455184937 0.0956869125366211
-0.498039186000824 0.40392154455184937 0.3113236427307129
-0.4823529124259949 0.40392154455184937 0.3185710906982422
-0.46666663885116577 0.40392154455184937 0.3220348358154297
-0.45098036527633667 0.40392154455184937 0.3245096206665039
-0.43529409170150757 0.40392154455184937 0.32656431198120117
0.06666672229766846 0.40392154455184937 0.07715415954589844
0.23921573162078857 0.40392154455184937 0.07924032211303711
0.2549020051956177 0.40392154455184937 0.08164644241333008
0.4745098352432251 0.40392154455184937 0.3538780212402344
0.5215686559677124 0.40392154455184937 0.13699674606323242
-0.8588235378265381 0.38823527097702026 0.15526676177978516
-0.843137264251709 0.38823527097702026 0.09202241897583008
-0.5607843399047852 0.38823527097702026 0.29669857025146484
-0.545098066329956 0.38823527097702026 0.3044915199279785
-0.529411792755127 0.38823527097702026 0.30872249603271484
-0.5137255191802979 0.38823527097702026 0.3120994567871094
-0.498039186000824 0.38823527097702026 0.3143625259399414
0.050980448722839355 0.38823527097702026 0.060021400451660156
0.06666672229766846 0.38823527097702026 0.06141233444213867
0.2549020051956177 0.38823527097702026 0.07512092590332031
0.2705882787704468 0.38823527097702026 0.0702662467956543
0.4745098352432251 0.38823527097702026 0.34505796432495117
0.5372549295425415 0.38823527097702026 0.1212301254272461
-0.8588235378265381 0.37254899740219116 0.17041492462158203
-0.843137264251709 0.37254899740219116 0.08659648895263672
-0.8274509906768799 0.37254899740219116 0.07745790481567383
-0.6235294342041016 0.37254899740219116 0.28215599060058594
-0.6078431606292725 0.37254899740219116 0.2900986671447754
-0.5921568870544434 0.37254899740219116 0.294039249420166
-0.5764706134796143 0.37254899740219116 0.2970418930053711
-0.5607843399047852 0.37254899740219116 0.2989635467529297
0.050980448722839355 0.37254899740219116 0.04901599884033203
0.2705882787704468 0.37254899740219116 0.07223701477050781
0.4901961088180542 0.37254899740219116 0.32724475860595703
0.5372549295425415 0.37254899740219116 0.10986089706420898
-0.8588235378265381 0.35686272382736206 0.18242454528808594
-0.8274509906768799 0.35686272382736206 0.07761478424072266
-0.686274528503418 0.35686272382736206 0.26656293869018555
-0.6705882549285889 0.35686272382736206 0.2752547264099121
-0.6549019813537598 0.35686272382736206 0.27977800369262695
-0.6392157077789307 0.35686272382736206 0.28331613540649414
-0.6235294342041016 0.35686272382736206 0.2855968475341797
0.050980448722839355 0.35686272382736206 0.041202545166015625
0.2705882787704468 0.35686272382736206 0.07473039627075195
0.4901961088180542 0.35686272382736206 0.3177042007446289
0.5372549295425415 0.35686272382736206 0.09134960174560547
0.5529412031173706 0.35686272382736206 0.09298229217529297
-0.8588235378265381 0.34117645025253296 0.19358539581298828
-0.8274509906768799 0.34117645025253296 0.07205963134765625
-0.7490196228027344 0.34117645025253296 0.2474226951599121
-0.7333333492279053 0.34117645025253296 0.2581944465637207
-0.7176470756530762 0.34117645025253296 0.2642941474914551
-0.7019608020782471 0.34117645025253296 0.26846933364868164
-0.686274528503418 0.34117645025253296 0.2711644172668457
0.050980448722839355 0.34117645025253296 0.04601716995239258
0.2549020051956177 0.34117645025253296 0.03621101379394531
0.2705882787704468 0.34117645025253296 0.08134222030639648
0.4901961088180542 0.34117645025253296 0.3010292053222656
0.5058823823928833 0.34117645025253296 0.29842424392700195
0.5529412031173706 0.34117645025253296 0.0823512077331543
-0.8588235378265381 0.32549017667770386 0.20219755172729492
-0.8117647171020508 0.32549017667770386 0.2268543243408203
-0.7960784435272217 0.32549017667770386 0.23555946350097656
-0.7803921699523926 0.32549017667770386 0.2424936294555664
-0.7647058963775635 0.32549017667770386 0.24714088439941406
-0.7490196228027344 0.32549017667770386 0.25109434127807617
0.050980448722839355 0.32549017667770386 0.06282186508178711
0.06666672229766846 0.32549017667770386 0.020992279052734375
0.11372554302215576 0.32549017667770386 0.2543506622314453
0.12941181659698486 0.32549017667770386 0.25705623626708984
0.14509809017181396 0.32549017667770386 0.25725698471069336
0.16078436374664307 0.32549017667770386 0.25534772872924805
0.17647063732147217 0.32549017667770386 0.2521514892578125
0.19215691089630127 0.32549017667770386 0.2462024688720703
0.20784318447113037 0.32549017667770386 0.23241758346557617
0.2549020051956177 0.32549017667770386 0.03501558303833008
0.2705882787704468 0.32549017667770386 0.09074115753173828
0.5058823823928833 0.32549017667770386 0.2906813621520996
0.5529412031173706 0.32549017667770386 0.06393146514892578
0.5686274766921997 0.32549017667770386 0.06390094757080078
-0.8588235378265381 0.30980390310287476 0.21959877014160156
-0.843137264251709 0.30980390310287476 0.22385740280151367
-0.8274509906768799 0.30980390310287476 0.22693538665771484
-0.8117647171020508 0.30980390310287476 0.22709083557128906
0.050980448722839355 0.30980390310287476 0.09015274047851562
0.06666672229766846 0.30980390310287476 0.023936748504638672
0.08235299587249756 0.30980390310287476 0.23632144927978516
0.09803926944732666 0.30980390310287476 0.24756240844726562
0.11372554302215576 0.30980390310287476 0.2484297752380371
0.20784318447113037 0.30980390310287476 0.2363414764404297
0.22352945804595947 0.30980390310287476 0.2302541732788086
0.23921573162078857 0.30980390310287476 0.21374750137329102
0.2549020051956177 0.30980390310287476 0.09859752655029297
0.2705882787704468 0.30980390310287476 0.10426712036132812
0.5058823823928833 0.30980390310287476 0.27407169342041016
0.5215686559677124 0.30980390310287476 0.2690410614013672
0.5686274766921997 0.30980390310287476 0.05366325378417969
-0.8588235378265381 0.29411762952804565 0.2188243865966797
-0.7960784435272217 0.29411762952804565 0.006079196929931641
-0.46666663885116577 0.29411762952804565 0.06391239166259766
-0.45098036527633667 0.29411762952804565 0.06550121307373047
-0.43529409170150757 0.29411762952804565 0.06404447555541992
0.050980448722839355 0.29411762952804565 0.12783432006835938
0.06666672229766846 0.29411762952804565 0.21805095672607422
0.08235299587249756 0.29411762952804565 0.22579574584960938
0.09803926944732666 0.29411762952804565 0.0068607330322265625
0.11372554302215576 0.29411762952804565 0.0016484260559082031
0.12941181659698486 0.29411762952804565 -0.0017786026000976562
0.19215691089630127 0.29411762952804565 -0.005997180938720703
0.20784318447113037 0.29411762952804565 0.0013003349304199219
0.22352945804595947 0.29411762952804565 0.01044464111328125
0.23921573162078857 0.29411762952804565 0.21619606018066406
0.2549020051956177 0.29411762952804565 0.20321035385131836
0.2705882787704468 0.29411762952804565 0.1271228790283203
0.5215686559677124 0.29411762952804565 0.2606215476989746
0.5686274766921997 0.29411762952804565 0.03583669662475586
0.5843137502670288 0.29411762952804565 0.03485822677612305
-0.843137264251709 0.27843135595321655 0.19960975646972656
-0.7960784435272217 0.27843135595321655 -0.007073879241943359
-0.5137255191802979 0.27843135595321655 0.05636310577392578
-0.498039186000824 0.27843135595321655 0.06181526184082031
-0.4823529124259949 0.27843135595321655 0.06418848037719727
-0.46666663885116577 0.27843135595321655 0.06378173828125
-0.45098036527633667 0.27843135595321655 0.06340694427490234
-0.43529409170150757 0.27843135595321655 0.06314897537231445
-0.41960781812667847 0.27843135595321655 0.06226205825805664
-0.40392154455184937 0.27843135595321655 0.057996273040771484
-0.38823527097702026 0.27843135595321655 0.05093669891357422
0.050980448722839355 0.27843135595321655 0.20125389099121094
0.06666672229766846 0.27843135595321655 0.2065138816833496
0.12941181659698486 0.27843135595321655 -0.0019006729125976562
0.14509809017181396 0.27843135595321655 -0.0012998580932617188
0.16078436374664307 0.27843135595321655 -0.002513885498046875
0.17647063732147217 0.27843135595321655 -0.004887104034423828
0.19215691089630127 0.27843135595321655 -0.007034778594970703
0.2549020051956177 0.27843135595321655 0.20374298095703125
0.2705882787704468 0.27843135595321655 0.18623685836791992
0.5215686559677124 0.27843135595321655 0.2445359230041504
0.5372549295425415 0.27843135595321655 0.2388138771057129
0.5843137502670288 0.27843135595321655 0.02511739730834961
-0.843137264251709 0.26274508237838745 0.19186925888061523
-0.7803921699523926 0.26274508237838745 -0.028082847595214844
-0.545098066329956 0.26274508237838745 0.03533029556274414
-0.529411792755127 0.26274508237838745 0.04534149169921875
-0.5137255191802979 0.26274508237838745 0.04607439041137695
-0.38823527097702026 0.26274508237838745 0.04383563995361328
-0.37254899740219116 0.26274508237838745 0.040065765380859375
0.050980448722839355 0.26274508237838745 0.19337081909179688
0.2705882787704468 0.26274508237838745 0.18990087509155273
0.5372549295425415 0.26274508237838745 0.2323770523071289
0.5843137502670288 0.26274508237838745 0.008800506591796875
0.6000000238418579 0.26274508237838745 0.005867958068847656
-0.843137264251709 0.24705880880355835 0.17269229888916016
-0.8274509906768799 0.24705880880355835 0.1737351417541504
-0.7803921699523926 0.24705880880355835 -0.04224395751953125
-0.5607843399047852 0.24705880880355835 0.017151355743408203
-0.545098066329956 0.24705880880355835 0.028641700744628906
-0.37254899740219116 0.24705880880355835 0.02663564682006836
-0.35686272382736206 0.24705880880355835 0.02910470962524414
0.050980448722839355 0.24705880880355835 0.18353652954101562
0.2705882787704468 0.24705880880355835 0.1779313087463379
0.5372549295425415 0.24705880880355835 0.21826648712158203
0.5529412031173706 0.24705880880355835 0.2117452621459961
0.6000000238418579 0.24705880880355835 -0.0033502578735351562
-0.8274509906768799 0.23137253522872925 0.16276121139526367
-0.7803921699523926 0.23137253522872925 -0.06090688705444336
-0.7647058963775635 0.23137253522872925 -0.06226062774658203
-0.5607843399047852 0.23137253522872925 0.010562419891357422
-0.35686272382736206 0.23137253522872925 0.0227508544921875
0.050980448722839355 0.23137253522872925 0.1751389503479004
0.2705882787704468 0.23137253522872925 0.16572856903076172
0.5529412031173706 0.23137253522872925 0.20586156845092773
0.6000000238418579 0.23137253522872925 -0.018813610076904297
0.615686297416687 0.23137253522872925 -0.025077342987060547
-0.8274509906768799 0.21568626165390015 0.14477300643920898
-0.8117647171020508 0.21568626165390015 0.14240407943725586
-0.7647058963775635 0.21568626165390015 -0.07344245910644531
-0.5607843399047852 0.21568626165390015 -0.003001689910888672
-0.35686272382736206 0.21568626165390015 0.015729427337646484
-0.34117645025253296 0.21568626165390015 0.017609596252441406
0.050980448722839355 0.21568626165390015 0.1619720458984375
0.06666672229766846 0.21568626165390015 0.16037321090698242
0.2549020051956177 0.21568626165390015 0.15274906158447266
0.5529412031173706 0.21568626165390015 0.19234037399291992
0.5686274766921997 0.21568626165390015 0.18408441543579102
0.615686297416687 0.21568626165390015 -0.0324854850769043
-0.8117647171020508 0.19999998807907104 0.13303613662719727
-0.7647058963775635 0.19999998807907104 -0.08963966369628906
-0.7490196228027344 0.19999998807907104 -0.09412717819213867
-0.5607843399047852 0.19999998807907104 -0.013759136199951172
-0.35686272382736206 0.19999998807907104 0.010684490203857422
-0.34117645025253296 0.19999998807907104 0.024109840393066406
0.06666672229766846 0.19999998807907104 0.15190362930297852
0.08235299587249756 0.19999998807907104 0.14501476287841797
0.23921573162078857 0.19999998807907104 0.1397705078125
0.2549020051956177 0.19999998807907104 0.14480209350585938
0.5686274766921997 0.19999998807907104 0.17938756942749023
0.615686297416687 0.19999998807907104 -0.046079158782958984
0.6313725709915161 0.19999998807907104 -0.05417919158935547
-0.8117647171020508 0.18431371450424194 0.11369657516479492
-0.7960784435272217 0.18431371450424194 0.1108698844909668
-0.7490196228027344 0.18431371450424194 -0.10542440414428711
-0.5607843399047852 0.18431371450424194 -0.015119075775146484
-0.35686272382736206 0.18431371450424194 -0.010134696960449219
-0.34117645025253296 0.18431371450424194 0.0350031852722168
0.08235299587249756 0.18431371450424194 0.13735294342041016
0.09803926944732666 0.18431371450424194 0.13485431671142578
0.11372554302215576 0.18431371450424194 0.1275615692138672
0.20784318447113037 0.18431371450424194 0.12485408782958984
0.22352945804595947 0.18431371450424194 0.13104772567749023
0.23921573162078857 0.18431371450424194 0.13182783126831055
0.5686274766921997 0.18431371450424194 0.16577911376953125
0.5843137502670288 0.18431371450424194 0.15596580505371094
0.6313725709915161 0.18431371450424194 -0.06083488464355469
-0.7960784435272217 0.16862744092941284 0.10051250457763672
-0.7490196228027344 0.16862744092941284 -0.1231536865234375
-0.7333333492279053 0.16862744092941284 -0.12743330001831055
-0.5607843399047852 0.16862744092941284 -0.009151935577392578
-0.545098066329956 0.16862744092941284 -0.08112192153930664
-0.5137255191802979 0.16862744092941284 0.16102170944213867
-0.498039186000824 0.16862744092941284 0.16923284530639648
-0.4823529124259949 0.16862744092941284 0.17365121841430664
-0.46666663885116577 0.16862744092941284 0.17302894592285156
-0.45098036527633667 0.16862744092941284 0.17061758041381836
-0.43529409170150757 0.16862744092941284 0.1660771369934082
-0.41960781812667847 0.16862744092941284 0.1617722511291504
-0.40392154455184937 0.16862744092941284 0.15499401092529297
-0.37254899740219116 0.16862744092941284 -0.036510467529296875
-0.35686272382736206 0.16862744092941284 0.03838539123535156
-0.34117645025253296 0.16862744092941284 0.04599189758300781
0.11372554302215576 0.16862744092941284 0.12412548065185547
0.12941181659698486 0.16862744092941284 0.12282466888427734
0.14509809017181396 0.16862744092941284 0.12019681930541992
0.16078436374664307 0.16862744092941284 0.1187281608581543
0.17647063732147217 0.16862744092941284 0.11863136291503906
0.19215691089630127 0.16862744092941284 0.12021064758300781
0.20784318447113037 0.16862744092941284 0.11807394027709961
0.5843137502670288 0.16862744092941284 0.15075397491455078
0.6313725709915161 0.16862744092941284 -0.07407665252685547
0.6470588445663452 0.16862744092941284 -0.08453083038330078
-0.7960784435272217 0.15294116735458374 0.08239984512329102
-0.7803921699523926 0.15294116735458374 0.07874441146850586
-0.7333333492279053 0.15294116735458374 -0.13677406311035156
-0.5607843399047852 0.15294116735458374 0.009254932403564453
-0.545098066329956 0.15294116735458374 0.13947534561157227
-0.529411792755127 0.15294116735458374 0.15372180938720703
-0.5137255191802979 0.15294116735458374 0.1573925018310547
-0.40392154455184937 0.15294116735458374 0.12624216079711914
-0.38823527097702026 0.15294116735458374 0.14647960662841797
-0.37254899740219116 0.15294116735458374 0.13991403579711914
-0.35686272382736206 0.15294116735458374 0.050142765045166016
-0.34117645025253296 0.15294116735458374 0.05735349655151367
0.5843137502670288 0.15294116735458374 0.1365680694580078
0.6000000238418579 0.15294116735458374 0.12544631958007812
0.6470588445663452 0.15294116735458374 -0.08978271484375
-0.7803921699523926 0.13725489377975464 0.07001876831054688
-0.7333333492279053 0.13725489377975464 -0.14708566665649414
-0.7176470756530762 0.13725489377975464 -0.14835214614868164
-0.5607843399047852 0.13725489377975464 0.12243509292602539
-0.545098066329956 0.13725489377975464 0.1347198486328125
-0.5137255191802979 0.13725489377975464 -0.0638279914855957
-0.498039186000824 0.13725489377975464 -0.07339906692504883
-0.4823529124259949 0.13725489377975464 -0.07871007919311523
-0.46666663885116577 0.13725489377975464 -0.07931232452392578
-0.45098036527633667 0.13725489377975464 -0.08131885528564453
-0.43529409170150757 0.13725489377975464 -0.0808415412902832
-0.41960781812667847 0.13725489377975464 -0.07475137710571289
-0.40392154455184937 0.13725489377975464 -0.06623315811157227
-0.38823527097702026 0.13725489377975464 -0.051470279693603516
-0.37254899740219116 0.13725489377975464 0.13405847549438477
-0.35686272382736206 0.13725489377975464 0.12673664093017578
-0.34117645025253296 0.13725489377975464 0.07560110092163086
0.6000000238418579 0.13725489377975464 0.12190485000610352
0.6470588445663452 0.13725489377975464 -0.10168838500976562
0.6627451181411743 0.13725489377975464 -0.11486434936523438
-0.7803921699523926 0.12156862020492554 0.05442333221435547
-0.7647058963775635 0.12156862020492554 0.047190189361572266
-0.7176470756530762 0.12156862020492554 -0.14828872680664062
-0.7019608020782471 0.12156862020492554 -0.15740585327148438
-0.5607843399047852 0.12156862020492554 0.12139177322387695
-0.4823529124259949 0.12156862020492554 -0.07637405395507812
-0.46666663885116577 0.12156862020492554 -0.0782918930053711
-0.45098036527633667 0.12156862020492554 -0.08192634582519531
-0.43529409170150757 0.12156862020492554 -0.08316898345947266
-0.35686272382736206 0.12156862020492554 0.12205696105957031
-0.34117645025253296 0.12156862020492554 0.08616209030151367
0.6000000238418579 0.12156862020492554 0.10810232162475586
0.615686297416687 0.12156862020492554 0.0955820083618164
0.6627451181411743 0.12156862020492554 -0.11938762664794922
-0.7647058963775635 0.10588234663009644 0.03919172286987305
-0.7176470756530762 0.10588234663009644 -0.14505577087402344
-0.7019608020782471 0.10588234663009644 -0.16017436981201172
-0.686274528503418 0.10588234663009644 -0.17203617095947266
-0.6705882549285889 0.10588234663009644 -0.18292903900146484
-0.6549019813537598 0.10588234663009644 -0.19591903686523438
-0.5607843399047852 0.10588234663009644 0.11172008514404297
-0.35686272382736206 0.10588234663009644 0.10889005661010742
-0.34117645025253296 0.10588234663009644 0.0955057144165039
0.615686297416687 0.10588234663009644 0.09192419052124023
0.6627451181411743 0.10588234663009644 -0.1332545280456543
0.6784313917160034 0.10588234663009644 -0.14676189422607422
-0.7647058963775635 0.09019607305526733 0.024302005767822266
-0.7490196228027344 0.09019607305526733 0.012028694152832031
-0.7176470756530762 0.09019607305526733 -0.13212060928344727
-0.6549019813537598 0.09019607305526733 -0.1970076560974121
-0.6392157077789307 0.09019607305526733 -0.20140886306762695
-0.6235294342041016 0.09019607305526733 -0.20494604110717773
-0.6078431606292725 0.09019607305526733 -0.20749378204345703
-0.5607843399047852 0.09019607305526733 0.10089969635009766
-0.35686272382736206 0.09019607305526733 0.0957179069519043
-0.34117645025253296 0.09019607305526733 0.09436702728271484
0.615686297416687 0.09019607305526733 0.07961082458496094
0.6784313917160034 0.09019607305526733 -0.15128374099731445
-0.7490196228027344 0.07450979948043823 0.008084297180175781
-0.7176470756530762 0.07450979948043823 -0.11793899536132812
-0.6078431606292725 0.07450979948043823 -0.21673965454101562
-0.5921568870544434 0.07450979948043823 -0.21300220489501953
-0.5764706134796143 0.07450979948043823 -0.2115793228149414
-0.5607843399047852 0.07450979948043823 0.08744621276855469
-0.35686272382736206 0.07450979948043823 0.08497810363769531
-0.34117645025253296 0.07450979948043823 0.07952022552490234
0.6313725709915161 0.07450979948043823 0.06395721435546875
0.6784313917160034 0.07450979948043823 -0.16304683685302734
-0.7490196228027344 0.05882352590560913 -0.006313323974609375
-0.7333333492279053 0.05882352590560913 -0.0783390998840332
-0.7176470756530762 0.05882352590560913 -0.10442018508911133
-0.5607843399047852 0.05882352590560913 -0.20403623580932617
-0.545098066329956 0.05882352590560913 0.07106161117553711
-0.529411792755127 0.05882352590560913 -0.21040058135986328
-0.35686272382736206 0.05882352590560913 0.07479524612426758
0.6313725709915161 0.05882352590560913 0.05251884460449219
0.6941176652908325 0.05882352590560913 -0.17943954467773438
-0.7333333492279053 0.04313725233078003 -0.027190685272216797
-0.7176470756530762 0.04313725233078003 -0.09052228927612305
-0.545098066329956 0.04313725233078003 0.057448387145996094
-0.529411792755127 0.04313725233078003 0.055006980895996094
-0.5137255191802979 0.04313725233078003 -0.21717357635498047
-0.498039186000824 0.04313725233078003 -0.22112131118774414
-0.4823529124259949 0.04313725233078003 -0.21973180770874023
-0.38823527097702026 0.04313725233078003 0.0511622428894043
-0.37254899740219116 0.04313725233078003 0.060794830322265625
0.6470588445663452 0.04313725233078003 0.03476428985595703
0.6941176652908325 0.04313725233078003 -0.18973588943481445
-0.7333333492279053 0.027450978755950928 -0.03919410705566406
-0.7176470756530762 0.027450978755950928 -0.051833152770996094
-0.529411792755127 0.027450978755950928 0.04361534118652344
-0.5137255191802979 0.027450978755950928 0.045479774475097656
-0.498039186000824 0.027450978755950928 0.03877544403076172
-0.4823529124259949 0.027450978755950928 0.020007610321044922
-0.46666663885116577 0.027450978755950928 -0.2121105194091797
-0.45098036527633667 0.027450978755950928 -0.1854081153869629
-0.43529409170150757 0.027450978755950928 0.028693675994873047
-0.41960781812667847 0.027450978755950928 0.03728914260864258
-0.40392154455184937 0.027450978755950928 0.04510831832885742
-0.38823527097702026 0.027450978755950928 0.04448413848876953
0.6470588445663452 0.027450978755950928 0.023317337036132812
0.6941176652908325 0.027450978755950928 -0.20581340789794922
0.7098039388656616 0.027450978755950928 -0.20664548873901367
-0.7176470756530762 0.011764705181121826 -0.04866838455200195
-0.7019608020782471 0.011764705181121826 -0.051737308502197266
-0.498039186000824 0.011764705181121826 0.031694889068603516
-0.4823529124259949 0.011764705181121826 0.03155660629272461
-0.46666663885116577 0.011764705181121826 0.029548168182373047
-0.45098036527633667 0.011764705181121826 0.028346538543701172
-0.43529409170150757 0.011764705181121826 0.027569293975830078
-0.41960781812667847 0.011764705181121826 -0.2531247138977051
-0.40392154455184937 0.011764705181121826 -0.2609386444091797
-0.38823527097702026 0.011764705181121826 -0.27050304412841797
0.6627451181411743 0.011764705181121826 0.004241466522216797
0.7098039388656616 0.011764705181121826 -0.21568727493286133
-0.7019608020782471 -0.003921627998352051 -0.054232120513916016
-0.686274528503418 -0.003921627998352051 -0.05531120300292969
-0.6705882549285889 -0.003921627998352051 -0.05947160720825195
-0.38823527097702026 -0.003921627998352051 -0.2705550193786621
-0.37254899740219116 -0.003921627998352051 -0.27036476135253906
-0.35686272382736206 -0.003921627998352051 -0.26631832122802734
0.6627451181411743 -0.003921627998352051 -0.005832195281982422
0.7098039388656616 -0.003921627998352051 -0.2332749366760254
0.7254902124404907 -0.003921627998352051 -0.23710060119628906
-0.6549019813537598 -0.019607901573181152 -0.06656599044799805
-0.6392157077789307 -0.019607901573181152 -0.06868410110473633
-0.6235294342041016 -0.019607901573181152 -0.07291126251220703
-0.34117645025253296 -0.019607901573181152 -0.2643013000488281
-0.32549017667770386 -0.019607901573181152 -0.26320457458496094
-0.30980390310287476 -0.019607901573181152 -0.2665119171142578
0.6784313917160034 -0.019607901573181152 -0.025111675262451172
0.7254902124404907 -0.019607901573181152 -0.24904727935791016
-0.6235294342041016 -0.035294175148010254 -0.0829615592956543
-0.6078431606292725 -0.035294175148010254 -0.08009862899780273
-0.5921568870544434 -0.035294175148010254 -0.08395242691040039
-0.5764706134796143 -0.035294175148010254 -0.09268569946289062
-0.30980390310287476 -0.035294175148010254 -0.27173900604248047
-0.29411762952804565 -0.035294175148010254 -0.2704458236694336
-0.27843135595321655 -0.035294175148010254 -0.2749295234680176
-0.26274508237838745 -0.035294175148010254 -0.2809000015258789
0.6784313917160034 -0.035294175148010254 -0.03493070602416992
0.7254902124404907 -0.035294175148010254 -0.26891231536865234
0.7411764860153198 -0.035294175148010254 -0.2729616165161133
-0.5764706134796143 -0.050980448722839355 -0.0957021713256836
-0.5607843399047852 -0.050980448722839355 -0.09887409210205078
-0.545098066329956 -0.050980448722839355 -0.10570859909057617
-0.529411792755127 -0.050980448722839355 -0.11557435989379883
-0.26274508237838745 -0.050980448722839355 -0.28347253799438477
-0.24705880880355835 -0.050980448722839355 -0.28502798080444336
-0.23137253522872925 -0.050980448722839355 -0.289583683013916
-0.21568626165390015 -0.050980448722839355 -0.2993645668029785
0.6784313917160034 -0.050980448722839355 -0.05224466323852539
0.6941176652908325 -0.050980448722839355 -0.05575752258300781
0.7411764860153198 -0.050980448722839355 -0.282773494720459
-0.529411792755127 -0.06666672229766846 -0.11376047134399414
-0.5137255191802979 -0.06666672229766846 -0.11723518371582031
-0.498039186000824 -0.06666672229766846 -0.12325716018676758
-0.21568626165390015 -0.06666672229766846 -0.29720163345336914
-0.19999998807907104 -0.06666672229766846 -0.30156898498535156
-0.18431371450424194 -0.06666672229766846 -0.3061962127685547
0.6941176652908325 -0.06666672229766846 -0.06454753875732422
0.7411764860153198 -0.06666672229766846 -0.29899024963378906
0.7568627595901489 -0.06666672229766846 -0.3025069236755371
-0.4823529124259949 -0.08235299587249756 -0.1296367645263672
-0.46666663885116577 -0.08235299587249756 -0.13227224349975586
-0.45098036527633667 -0.08235299587249756 -0.13646745681762695
-0.16862744092941284 -0.08235299587249756 -0.3113217353820801
-0.15294116735458374 -0.08235299587249756 -0.31597423553466797
-0.13725489377975464 -0.08235299587249756 -0.32267332077026367
0.3490196466445923 -0.08235299587249756 -0.30739831924438477
0.3647059202194214 -0.08235299587249756 -0.2997245788574219
0.3803921937942505 -0.08235299587249756 -0.2953372001647949
0.3960784673690796 -0.08235299587249756 -0.29257965087890625
0.4117647409439087 -0.08235299587249756 -0.2906613349914551
0.4274510145187378 -0.08235299587249756 -0.28977489471435547
0.4431372880935669 -0.08235299587249756 -0.29027509689331055
0.458823561668396 -0.08235299587249756 -0.2929978370666504
0.6941176652908325 -0.08235299587249756 -0.08159732818603516
0.7098039388656616 -0.08235299587249756 -0.0875844955444336
0.7568627595901489 -0.08235299587249756 -0.3115415573120117
-0.45098036527633667 -0.09803926944732666 -0.13975811004638672
-0.43529409170150757 -0.09803926944732666 -0.1382288932800293
-0.41960781812667847 -0.09803926944732666 -0.14072751998901367
-0.40392154455184937 -0.09803926944732666 -0.14572477340698242
-0.13725489377975464 -0.09803926944732666 -0.3258490562438965
-0.12156862020492554 -0.09803926944732666 -0.3271675109863281
-0.10588234663009644 -0.09803926944732666 -0.3314495086669922
-0.09019607305526733 -0.09803926944732666 -0.3384723663330078
0.3333333730697632 -0.09803926944732666 -0.31443119049072266
0.3490196466445923 -0.09803926944732666 -0.3090486526489258
0.458823561668396 -0.09803926944732666 -0.30033397674560547
0.4745098352432251 -0.09803926944732666 -0.2978687286376953
0.4901961088180542 -0.09803926944732666 -0.3015584945678711
0.7098039388656616 -0.09803926944732666 -0.09611177444458008
0.7568627595901489 -0.09803926944732666 -0.32686567306518555
0.772549033164978 -0.09803926944732666 -0.3295783996582031
-0.40392154455184937 -0.11372554302215576 -0.15073299407958984
-0.38823527097702026 -0.11372554302215576 -0.14960432052612305
-0.37254899740219116 -0.11372554302215576 -0.15218067169189453
-0.35686272382736206 -0.11372554302215576 -0.15745258331298828
-0.09019607305526733 -0.11372554302215576 -0.33945560455322266
-0.07450979948043823 -0.11372554302215576 -0.3417816162109375
-0.05882352590560913 -0.11372554302215576 -0.34659671783447266
-0.04313725233078003 -0.11372554302215576 -0.3569331169128418
0.3176470994949341 -0.11372554302215576 -0.32677173614501953
0.4901961088180542 -0.11372554302215576 -0.30693721771240234
0.5058823823928833 -0.11372554302215576 -0.30951642990112305
0.7098039388656616 -0.11372554302215576 -0.11180257797241211
0.7254902124404907 -0.11372554302215576 -0.11927223205566406
0.772549033164978 -0.11372554302215576 -0.33922576904296875
-0.35686272382736206 -0.12941181659698486 -0.16097640991210938
-0.34117645025253296 -0.12941181659698486 -0.16078996658325195
-0.32549017667770386 -0.12941181659698486 -0.16418218612670898
-0.04313725233078003 -0.12941181659698486 -0.3533964157104492
-0.027450978755950928 -0.12941181659698486 -0.35777807235717773
-0.011764705181121826 -0.12941181659698486 -0.36249208450317383
0.301960825920105 -0.12941181659698486 -0.34055280685424805
0.3176470994949341 -0.12941181659698486 -0.33965301513671875
0.5058823823928833 -0.12941181659698486 -0.3159184455871582
0.7254902124404907 -0.12941181659698486 -0.12471151351928711
0.772549033164978 -0.12941181659698486 -0.3548588752746582
0.7882353067398071 -0.12941181659698486 -0.35942792892456055
-0.30980390310287476 -0.14509809017181396 -0.17209625244140625
-0.29411762952804565 -0.14509809017181396 -0.17580652236938477
-0.27843135595321655 -0.14509809017181396 -0.18167972564697266
0.003921627998352051 -0.14509809017181396 -0.36771631240844727
0.019607901573181152 -0.14509809017181396 -0.3711419105529785
0.035294175148010254 -0.14509809017181396 -0.3762660026550293
0.301960825920105 -0.14509809017181396 -0.34675121307373047
0.5058823823928833 -0.14509809017181396 -0.32928895950317383
0.5215686559677124 -0.14509809017181396 -0.324979305267334
0.7254902124404907 -0.14509809017181396 -0.13860034942626953
0.7411764860153198 -0.14509809017181396 -0.14751815795898438
0.7882353067398071 -0.14509809017181396 -0.36858272552490234
-0.27843135595321655 -0.16078436374664307 -0.18669557571411133
-0.26274508237838745 -0.16078436374664307 -0.18627214431762695
-0.24705880880355835 -0.16078436374664307 -0.19057226181030273
-0.23137253522872925 -0.16078436374664307 -0.19775152206420898
0.035294175148010254 -0.16078436374664307 -0.38132429122924805
0.050980448722839355 -0.16078436374664307 -0.3802456855773926
0.06666672229766846 -0.16078436374664307 -0.3838057518005371
0.08235299587249756 -0.16078436374664307 -0.3896651268005371
0.301960825920105 -0.16078436374664307 -0.3534250259399414
0.5215686559677124 -0.16078436374664307 -0.3286623954772949
0.7411764860153198 -0.16078436374664307 -0.15367937088012695
0.7882353067398071 -0.16078436374664307 -0.3845515251159668
0.8039215803146362 -0.16078436374664307 -0.39020538330078125
-0.23137253522872925 -0.17647063732147217 -0.19867515563964844
-0.21568626165390015 -0.17647063732147217 -0.20142173767089844
-0.19999998807907104 -0.17647063732147217 -0.2055659294128418
-0.18431371450424194 -0.17647063732147217 -0.21416378021240234
0.08235299587249756 -0.17647063732147217 -0.39296770095825195
0.09803926944732666 -0.17647063732147217 -0.39452266693115234
0.11372554302215576 -0.17647063732147217 -0.3991708755493164
0.12941181659698486 -0.17647063732147217 -0.4071774482727051
0.301960825920105 -0.17647063732147217 -0.35565948486328125
0.5058823823928833 -0.17647063732147217 -0.36536216735839844
0.5215686559677124 -0.17647063732147217 -0.3289012908935547
0.7411764860153198 -0.17647063732147217 -0.16806745529174805
0.7568627595901489 -0.17647063732147217 -0.17926406860351562
0.8039215803146362 -0.17647063732147217 -0.3987903594970703
-0.18431371450424194 -0.19215691089630127 -0.21211528778076172
-0.16862744092941284 -0.19215691089630127 -0.21505308151245117
-0.15294116735458374 -0.19215691089630127 -0.2193751335144043
0.12941181659698486 -0.19215691089630127 -0.4051175117492676
0.14509809017181396 -0.19215691089630127 -0.4072098731994629
0.16078436374664307 -0.19215691089630127 -0.41180992126464844
0.301960825920105 -0.19215691089630127 -0.34951114654541016
0.3176470994949341 -0.19215691089630127 -0.40664052963256836
0.3647059202194214 -0.19215691089630127 -0.1681809425354004
0.3803921937942505 -0.19215691089630127 -0.16287660598754883
0.3960784673690796 -0.19215691089630127 -0.1613445281982422
0.4117647409439087 -0.19215691089630127 -0.16052770614624023
0.4274510145187378 -0.19215691089630127 -0.16170024871826172
0.4431372880935669 -0.19215691089630127 -0.16422033309936523
0.458823561668396 -0.19215691089630127 -0.17200374603271484
0.5058823823928833 -0.19215691089630127 -0.3622274398803711
0.5215686559677124 -0.19215691089630127 -0.3254241943359375
0.7568627595901489 -0.19215691089630127 -0.1837940216064453
0.8039215803146362 -0.19215691089630127 -0.4125962257385254
0.8196078538894653 -0.19215691089630127 -0.4203171730041504
-0.13725489377975464 -0.20784318447113037 -0.2262096405029297
-0.12156862020492554 -0.20784318447113037 -0.23070478439331055
-0.10588234663009644 -0.20784318447113037 -0.23593473434448242
0.17647063732147217 -0.20784318447113037 -0.41820478439331055
0.19215691089630127 -0.20784318447113037 -0.42374372482299805
0.20784318447113037 -0.20784318447113037 -0.43170881271362305
0.301960825920105 -0.20784318447113037 -0.3416109085083008
0.3176470994949341 -0.20784318447113037 -0.3742179870605469
0.3333333730697632 -0.20784318447113037 -0.18503379821777344
0.3490196466445923 -0.20784318447113037 -0.17493295669555664
0.3647059202194214 -0.20784318447113037 -0.1720418930053711
0.4431372880935669 -0.20784318447113037 -0.17165040969848633
0.458823561668396 -0.20784318447113037 -0.17276811599731445
0.4745098352432251 -0.20784318447113037 -0.17516040802001953
0.4901961088180542 -0.20784318447113037 -0.1890420913696289
0.5058823823928833 -0.20784318447113037 -0.3432912826538086
0.5215686559677124 -0.20784318447113037 -0.31226253509521484
0.7568627595901489 -0.20784318447113037 -0.1988978385925293
0.772549033164978 -0.20784318447113037 -0.21229314804077148
0.8196078538894653 -0.20784318447113037 -0.4281764030456543
-0.10588234663009644 -0.22352945804595947 -0.24228239059448242
-0.09019607305526733 -0.22352945804595947 -0.24091625213623047
-0.07450979948043823 -0.22352945804595947 -0.24420547485351562
-0.05882352590560913 -0.22352945804595947 -0.24993181228637695
0.20784318447113037 -0.22352945804595947 -0.4360370635986328
0.22352945804595947 -0.22352945804595947 -0.43828916549682617
0.23921573162078857 -0.22352945804595947 -0.443270206451416
0.2549020051956177 -0.22352945804595947 -0.4488525390625
0.301960825920105 -0.22352945804595947 -0.24299001693725586
0.3176470994949341 -0.22352945804595947 -0.20233869552612305
0.3333333730697632 -0.22352945804595947 -0.3624439239501953
0.3490196466445923 -0.22352945804595947 -0.4363718032836914
0.3647059202194214 -0.22352945804595947 -0.44058990478515625
0.4431372880935669 -0.22352945804595947 -0.41618919372558594
0.458823561668396 -0.22352945804595947 -0.40708017349243164
0.4745098352432251 -0.22352945804595947 -0.3958168029785156
0.4901961088180542 -0.22352945804595947 -0.1884899139404297
0.5058823823928833 -0.22352945804595947 -0.2002716064453125
0.5215686559677124 -0.22352945804595947 -0.28517675399780273
0.772549033164978 -0.22352945804595947 -0.21780061721801758
0.8196078538894653 -0.22352945804595947 -0.4412565231323242
0.8352941274642944 -0.22352945804595947 -0.4503765106201172
-0.05882352590560913 -0.23921573162078857 -0.25261926651000977
-0.04313725233078003 -0.23921573162078857 -0.2537198066711426
-0.027450978755950928 -0.23921573162078857 -0.2579612731933594
-0.011764705181121826 -0.23921573162078857 -0.26529407501220703
0.2549020051956177 -0.23921573162078857 -0.4494185447692871
0.2705882787704468 -0.23921573162078857 -0.444735050201416
0.2862745523452759 -0.23921573162078857 -0.42403221130371094
0.301960825920105 -0.23921573162078857 -0.2217864990234375
